19.966667	19.982759	19.981482	19.981482	19.981482	19.981482	19.981482	20.000000	20.000000	19.982759	19.982759	20.000000	20.020000	20.049999	20.049999	20.021740	20.021740	20.021740	20.021740	20.000000	20.000000	20.000000	20.020000	20.049999	20.083334	20.100000	20.111111	20.111111	20.111111	20.088236	19.973684	19.928572	19.921053	19.888889	19.888889	19.888889	19.833334	19.833334	19.833334	19.950001	22.785715	22.785715	22.785715	22.785715	22.785715	23.055555	23.055555	23.076923	23.078947	23.078947	23.100000	23.125000	23.125000	23.125000	23.078947	23.059999	23.000000	23.000000	22.937500	22.875000	22.875000	22.863636	22.863636	22.833334	21.366667	21.299999	21.131578	21.092592	21.026316	21.023809	21.000000	21.000000	21.000000	21.000000	21.000000	21.000000	21.071428	21.166666	21.250000	21.250000	21.205883	21.195652	21.181818	21.409090	21.416666	21.416666	21.653847	21.700001	21.700001	21.700001	21.700001	21.700001	21.766666	21.812500	21.900000	21.900000	21.909090	21.921053	21.928572	21.958334	21.958334	21.981482	21.981482	21.928572	21.928572	21.954546	21.954546	21.954546	21.954546	21.940001	21.909090	21.900000	21.852942	21.852942	21.875000	21.875000	21.875000	21.868422	21.833334	21.833334	21.812500	21.687500	21.633333	21.633333	21.357143	21.357143	21.250000	21.136364	21.083334	21.020000	21.018518	21.000000	21.000000	21.020000	21.045454	21.045454	21.045454	21.021740	21.021740	21.021740	21.021740	21.000000	21.000000	21.000000	21.000000	20.966667	20.966667	20.966667	20.944445	20.807692	20.807692	20.900000	20.900000	22.119047	22.166666	22.187500	22.299999	22.299999	25.958334	25.978260	26.000000	26.000000	26.000000	25.933332	25.933332	25.933332	25.933332	25.933332	25.933332	25.880953	25.852942	25.750000	25.642857	25.289474	25.289474	25.289474	25.299999	25.299999	25.277779	25.166666	25.000000	25.000000	24.961538	24.062500	23.875000	23.777779	20.388889	20.388889	20.799999	20.815790	20.880953	20.981482	21.018518	21.020000	21.020000	21.000000	21.000000	21.020000	21.020000	21.000000	21.000000	20.961538	20.961538	20.961538	20.980000	20.980000	20.980000	20.981482	21.000000	21.000000	20.981482	20.961538	20.961538	20.961538	20.961538	20.950001	20.950001	20.973684	21.000000	21.000000	21.000000	21.016129	21.017241	21.017241	20.981482	20.980000	20.980000	20.980000	20.980000	20.980000	21.000000	21.000000	21.000000	21.021740	21.029411	21.029411	21.023809	21.023809	21.023809	21.023809	21.023809	21.018518	21.000000	20.980000	20.964285	20.964285	20.978260	20.980000	21.021740	21.023809	21.023809	20.978260	20.937500	20.916666	20.900000	20.833334	20.833334	18.078947	18.078947	20.875000	20.950001	20.958334	20.958334	20.954546	20.954546	20.973684	20.973684	20.982759	21.000000	21.000000	21.018518	21.018518	21.018518	21.000000	21.000000	21.000000	21.000000	21.018518	21.018518	21.018518	21.018518	21.000000	21.000000	21.000000	21.000000	21.000000	21.000000	21.000000	21.000000	21.000000	21.000000	21.000000	21.000000	21.000000	20.978260	20.928572	20.921053	20.911764
19.982759	19.982759	19.981482	19.981482	19.981482	19.981482	19.981482	20.000000	20.000000	20.000000	20.000000	20.020000	20.021740	20.049999	20.049999	20.021740	20.021740	20.021740	20.021740	20.021740	20.000000	20.000000	20.020000	20.049999	20.065218	20.083334	20.100000	20.111111	20.100000	20.038462	20.000000	19.950001	19.928572	19.921053	19.888889	19.888889	19.833334	19.227272	19.227272	19.227272	19.227272	19.227272	19.000000	19.000000	19.023809	19.023809	23.055555	23.076923	23.076923	23.078947	23.125000	23.214285	23.222221	23.222221	23.152174	23.059999	23.020000	23.000000	22.937500	22.921053	22.911764	22.911764	22.911764	22.863636	22.700001	21.366667	21.205883	21.131578	21.071428	21.049999	21.049999	21.045454	21.000000	21.000000	21.000000	21.071428	21.166666	21.222221	21.250000	21.250000	21.205883	21.195652	21.181818	21.181818	21.409090	21.416666	21.416666	21.653847	21.653847	21.590910	21.576923	21.576923	21.666666	21.666666	21.714285	21.750000	21.766666	21.766666	21.833334	21.863636	21.880953	21.981482	21.981482	21.976191	21.976191	21.976191	21.976191	21.954546	21.954546	21.940001	21.909090	21.900000	21.875000	21.868422	21.875000	21.875000	21.875000	21.875000	21.868422	21.833334	21.833334	21.687500	21.633333	21.633333	21.357143	21.277779	21.227272	21.152174	21.065218	21.020000	21.020000	21.018518	21.020000	21.045454	21.045454	21.045454	21.026316	21.021740	21.021740	21.021740	21.021740	21.000000	21.000000	21.000000	21.000000	20.966667	20.966667	20.966667	20.966667	20.944445	20.900000	20.900000	20.900000	22.119047	22.166666	22.299999	22.299999	22.299999	25.976191	25.978260	26.000000	26.000000	26.000000	25.933332	25.928572	25.928572	25.933332	25.933332	25.933332	25.852942	25.730770	25.576923	25.227272	25.125000	25.100000	25.100000	25.100000	25.100000	25.100000	25.000000	25.000000	25.000000	25.000000	24.961538	24.136364	24.045454	24.045454	24.045454	20.833334	20.880953	20.981482	20.981482	20.981482	21.018518	21.000000	21.000000	21.000000	21.020000	21.020000	21.000000	21.000000	21.000000	21.000000	21.000000	20.980000	20.980000	20.980000	21.000000	21.000000	21.000000	21.000000	21.000000	20.964285	20.961538	20.958334	20.958334	20.958334	20.976191	20.976191	21.000000	21.000000	21.000000	21.016129	20.981482	20.981482	20.981482	20.981482	20.981482	20.980000	20.980000	21.000000	21.000000	21.021740	21.021740	21.021740	21.023809	21.023809	21.023809	21.000000	21.000000	21.000000	21.000000	21.000000	21.000000	21.000000	20.980000	20.980000	20.980000	20.980000	21.021740	21.000000	21.000000	20.978260	20.937500	20.916666	20.916666	20.916666	20.884615	20.884615	20.950001	20.958334	20.958334	20.958334	20.958334	20.973684	20.976191	21.000000	21.000000	21.000000	21.000000	21.018518	21.018518	21.018518	21.018518	21.000000	21.000000	21.000000	21.018518	21.018518	21.000000	21.000000	21.000000	21.000000	21.000000	21.000000	21.000000	21.000000	21.000000	21.000000	21.021740	21.000000	21.000000	21.000000	21.000000	20.978260	20.944445	20.921053	20.911764
19.982759	19.982759	19.982759	19.981482	19.981482	19.981482	19.981482	20.000000	20.000000	20.000000	20.000000	20.020000	20.020000	20.021740	20.023809	20.021740	20.021740	20.021740	20.021740	20.021740	20.020000	20.000000	20.000000	20.020000	20.049999	20.071428	20.090910	20.100000	20.038462	20.000000	20.000000	20.000000	19.950001	19.928572	19.928572	19.928572	19.888889	19.666666	19.227272	19.227272	19.227272	19.227272	19.184210	19.023809	19.023809	19.023809	19.184210	23.076923	23.076923	23.078947	23.214285	23.214285	23.222221	23.222221	23.152174	23.059999	23.020000	22.973684	22.921053	22.921053	22.911764	22.911764	22.911764	22.700001	22.000000	21.366667	21.187500	21.147058	21.071428	21.071428	21.049999	21.045454	21.000000	21.000000	21.000000	21.071428	21.071428	21.166666	21.205883	21.205883	21.205883	21.181818	21.131578	21.111111	21.088236	21.088236	21.147058	21.166666	21.250000	21.299999	21.333334	21.409090	21.409090	21.576923	21.700001	21.750000	21.766666	21.833334	21.863636	21.863636	21.880953	21.981482	21.981482	21.981482	21.978260	21.976191	21.976191	21.976191	21.954546	21.940001	21.916666	21.884615	21.875000	21.875000	21.875000	21.875000	21.875000	21.875000	21.875000	21.833334	21.763159	21.714285	21.633333	21.357143	21.277779	21.277779	21.227272	21.119047	21.041666	21.035715	21.021740	21.021740	21.045454	21.055555	21.071428	21.071428	21.045454	21.026316	21.026316	21.026316	21.026316	21.021740	21.000000	21.000000	21.000000	21.000000	21.000000	21.000000	21.000000	21.071428	21.071428	20.961538	20.961538	22.166666	22.299999	22.299999	22.299999	25.875000	25.976191	25.978260	26.000000	26.000000	25.954546	25.933332	25.928572	25.928572	25.921053	25.921053	25.852942	25.730770	25.600000	25.382353	25.166666	25.100000	25.059999	25.017241	25.017241	25.023809	25.000000	25.000000	25.000000	25.000000	25.000000	25.000000	24.961538	24.045454	24.045454	24.045454	24.045454	24.000000	23.954546	20.981482	20.981482	21.018518	21.018518	21.000000	21.020000	21.020000	21.020000	21.000000	21.000000	21.000000	21.000000	21.000000	21.000000	20.980000	20.980000	20.980000	21.000000	21.000000	21.000000	21.000000	20.980000	20.964285	20.961538	20.958334	20.964285	20.976191	20.976191	20.980000	21.000000	21.000000	21.000000	20.981482	20.981482	20.981482	20.981482	20.981482	21.000000	21.000000	21.000000	21.021740	21.021740	21.021740	21.021740	21.023809	21.023809	21.000000	21.000000	21.000000	21.000000	21.000000	21.000000	21.000000	21.000000	20.981482	20.980000	20.980000	20.980000	20.980000	20.980000	20.978260	20.978260	20.958334	20.958334	20.958334	20.951612	20.940001	20.940001	20.958334	20.958334	20.958334	20.958334	20.973684	20.976191	21.000000	21.000000	21.000000	21.000000	21.018518	21.018518	21.018518	21.018518	21.018518	21.000000	21.000000	21.000000	21.018518	21.000000	21.000000	21.000000	21.000000	21.000000	21.000000	21.000000	21.000000	21.000000	21.000000	21.017241	21.021740	21.021740	21.000000	21.000000	21.000000	21.000000	20.973684	20.944445	20.911764
19.982759	19.982759	19.982759	19.982759	19.981482	19.981482	19.981482	20.000000	20.000000	20.000000	20.000000	20.000000	20.000000	20.021740	20.023809	20.021740	20.021740	20.021740	20.021740	20.021740	20.020000	20.000000	20.000000	20.020000	20.071428	20.090910	20.090910	20.090910	20.038462	20.000000	20.000000	19.973684	19.973684	19.950001	19.928572	19.928572	19.973684	19.888889	19.666666	19.666666	19.666666	19.666666	19.250000	19.184210	19.184210	19.184210	19.937500	23.076923	23.076923	23.078947	23.100000	23.214285	23.214285	23.136364	23.066668	23.059999	23.000000	22.966667	22.921053	22.911764	22.875000	22.766666	22.642857	22.299999	21.722221	21.666666	21.366667	21.187500	21.147058	21.071428	21.071428	21.049999	21.045454	21.000000	21.065218	21.071428	21.071428	21.166666	21.205883	21.205883	21.205883	21.205883	21.181818	21.131578	21.111111	21.111111	21.166666	21.250000	21.299999	21.333334	21.333334	21.409090	21.576923	21.700001	21.750000	21.766666	21.850000	21.934782	22.000000	21.961538	21.961538	21.981482	21.981482	21.981482	21.981482	21.980000	21.980000	21.980000	21.954546	21.940001	21.937500	21.909090	21.884615	21.875000	21.875000	21.875000	21.875000	21.875000	21.833334	21.777779	21.763159	21.763159	21.633333	21.346153	21.277779	21.277779	21.227272	21.119047	21.038462	21.038462	21.038462	21.045454	21.071428	21.071428	21.078947	21.078947	21.078947	21.071428	21.071428	21.059999	21.026316	21.026316	21.026316	21.033333	21.033333	21.033333	21.033333	21.055555	21.062500	21.071428	21.071428	21.071428	25.233334	25.233334	25.264706	25.264706	25.833334	25.875000	25.940001	25.976191	25.976191	25.954546	25.933332	25.928572	25.928572	25.921053	25.921053	25.852942	25.785715	25.600000	25.600000	25.382353	25.166666	25.059999	25.031250	25.017241	25.017241	25.000000	25.000000	25.000000	25.000000	25.000000	25.000000	25.000000	24.750000	24.433332	24.045454	24.045454	24.045454	24.045454	24.000000	23.961538	23.961538	23.961538	21.200001	21.184210	21.131578	21.065218	21.065218	21.020000	21.000000	21.000000	21.000000	21.000000	21.000000	21.000000	20.980000	20.980000	20.980000	21.000000	21.000000	21.000000	20.980000	20.978260	20.961538	20.964285	20.964285	20.976191	20.976191	20.980000	21.020000	21.020000	21.000000	21.000000	20.981482	20.981482	20.981482	21.000000	21.000000	21.000000	21.000000	21.021740	21.021740	21.021740	21.021740	21.021740	21.000000	21.000000	21.000000	21.000000	21.000000	21.000000	21.000000	21.000000	21.000000	21.000000	20.981482	20.980000	20.961538	20.961538	20.964285	20.964285	20.958334	20.958334	20.958334	20.958334	20.958334	20.958334	20.958334	20.958334	20.958334	20.958334	20.978260	20.976191	20.976191	21.000000	21.000000	21.000000	21.000000	21.018518	21.018518	21.018518	21.018518	21.000000	21.000000	21.000000	21.018518	21.018518	21.018518	21.000000	21.000000	20.980000	20.978260	20.978260	20.978260	21.000000	21.000000	21.000000	21.000000	21.021740	21.021740	21.000000	21.000000	21.000000	21.000000	20.973684	20.961538	20.944445
19.976191	19.982759	19.982759	19.982759	19.982759	19.981482	19.981482	19.981482	20.000000	20.000000	20.000000	20.000000	20.000000	20.021740	20.021740	20.021740	20.021740	20.021740	20.021740	20.020000	20.020000	20.020000	20.021740	20.021740	20.071428	20.090910	20.090910	20.111111	20.090910	20.038462	20.000000	20.000000	19.973684	19.973684	19.950001	19.973684	19.973684	19.973684	19.888889	19.735294	19.735294	19.666666	19.666666	19.666666	19.666666	19.937500	19.937500	23.108696	23.108696	23.100000	23.100000	23.214285	23.214285	23.214285	23.136364	23.090910	23.059999	23.000000	22.966667	22.911764	22.833334	22.642857	22.611111	22.299999	21.722221	21.722221	21.666666	21.666666	21.611111	21.611111	21.666666	21.750000	21.750000	21.653847	21.653847	21.653847	21.653847	21.653847	21.642857	21.642857	21.653847	21.714285	21.714285	21.714285	21.766666	21.785715	21.785715	21.833334	21.852942	21.888889	21.888889	21.888889	21.888889	21.900000	21.916666	21.934782	21.961538	22.000000	22.000000	22.000000	21.981482	21.982759	21.981482	21.981482	21.981482	21.980000	21.980000	21.980000	21.940001	21.940001	21.940001	21.940001	21.921053	21.909090	21.875000	21.875000	21.833334	21.833334	21.777779	21.763159	21.763159	21.763159	21.346153	21.250000	21.250000	21.250000	21.150000	21.119047	21.038462	21.038462	21.038462	21.059999	21.071428	21.078947	21.111111	21.166666	21.166666	21.136364	21.071428	21.071428	21.059999	21.029411	21.029411	21.029411	21.033333	21.033333	21.045454	21.055555	21.055555	21.062500	21.071428	25.233334	25.233334	25.264706	25.264706	25.833334	25.847826	25.923077	25.923077	25.940001	25.950001	25.950001	25.950001	25.933332	25.933332	25.933332	25.921053	25.916666	25.852942	25.763159	25.600000	25.382353	25.166666	25.142857	25.059999	25.031250	25.031250	25.031250	25.000000	25.000000	25.000000	25.000000	25.000000	25.000000	24.750000	24.433332	24.433332	24.433332	24.433332	24.433332	24.900000	24.900000	23.961538	23.961538	23.961538	23.961538	21.269230	21.269230	21.269230	21.269230	21.200001	21.000000	21.000000	21.000000	21.000000	21.000000	21.000000	20.980000	20.980000	21.000000	21.000000	21.000000	21.000000	21.000000	20.980000	20.980000	20.980000	20.976191	20.976191	20.980000	21.000000	21.000000	21.000000	21.000000	21.000000	20.981482	20.981482	21.000000	21.000000	21.000000	21.000000	21.018518	21.021740	21.021740	21.021740	21.020000	21.000000	20.958334	20.958334	21.000000	21.000000	21.000000	21.000000	21.000000	21.000000	21.000000	21.000000	20.980000	20.961538	20.961538	20.964285	20.964285	20.958334	20.958334	20.958334	20.958334	20.958334	20.981482	20.981482	20.958334	20.958334	20.978260	21.023809	21.023809	21.000000	21.000000	21.000000	21.000000	21.000000	21.000000	21.018518	21.018518	21.000000	21.000000	21.000000	21.000000	21.018518	21.018518	21.018518	21.000000	20.980000	20.978260	20.978260	20.978260	20.978260	21.000000	21.000000	21.000000	21.000000	21.000000	21.021740	21.021740	21.018518	21.018518	21.000000	21.000000	21.000000	21.000000
19.909090	19.980000	19.982759	19.982759	19.982759	19.982759	19.981482	19.981482	20.000000	20.000000	20.000000	20.000000	20.000000	20.021740	20.021740	20.021740	20.021740	20.000000	20.020000	20.020000	20.020000	20.020000	20.021740	20.021740	20.041666	20.078947	20.090910	20.111111	20.111111	20.090910	20.071428	20.071428	20.033333	20.000000	20.000000	20.049999	20.088236	20.088236	20.029411	19.888889	19.735294	19.566668	19.566668	19.666666	19.666666	19.937500	23.108696	23.108696	23.125000	23.868422	23.888889	23.888889	23.868422	23.730770	23.375000	23.312500	23.184210	23.184210	23.142857	22.966667	22.911764	22.700001	22.611111	22.299999	21.928572	21.722221	21.722221	21.714285	21.714285	21.763159	21.785715	21.785715	21.815790	21.815790	21.653847	21.653847	21.666666	21.714285	21.714285	21.735294	21.807692	21.807692	21.807692	21.812500	21.833334	21.916666	21.916666	21.928572	21.928572	21.888889	21.888889	21.888889	21.916666	21.916666	21.934782	21.961538	21.961538	22.000000	22.000000	21.982759	21.982759	21.982759	21.981482	21.981482	21.980000	21.980000	21.980000	21.976191	21.940001	21.940001	21.940001	21.940001	21.928572	21.909090	21.909090	21.875000	21.875000	21.833334	21.763159	21.763159	21.763159	21.346153	21.346153	21.346153	21.250000	21.250000	21.150000	21.083334	21.059999	21.038462	21.038462	21.038462	21.071428	21.111111	21.125000	21.166666	21.166666	21.166666	21.312500	21.250000	21.115385	21.062500	21.029411	21.029411	21.029411	21.029411	21.045454	21.055555	21.055555	21.071428	25.233334	25.233334	25.264706	25.264706	25.833334	25.847826	25.923077	25.923077	25.923077	25.940001	25.950001	25.978260	25.978260	25.978260	25.978260	26.000000	25.976191	25.921053	25.900000	25.763159	25.600000	25.382353	25.222221	25.142857	25.090910	25.090910	25.090910	25.100000	25.100000	25.000000	25.000000	25.029411	25.029411	25.000000	25.000000	24.730770	24.433332	24.433332	24.433332	24.433332	24.884615	24.884615	23.961538	23.961538	23.961538	21.269230	21.269230	21.269230	21.269230	21.269230	21.200001	21.020000	21.000000	21.000000	21.000000	21.000000	20.981482	20.980000	20.980000	21.000000	21.000000	21.000000	21.000000	21.000000	20.980000	20.980000	20.980000	20.980000	20.976191	20.980000	21.000000	21.000000	21.000000	21.000000	21.000000	21.000000	21.000000	21.000000	21.000000	21.000000	21.000000	21.018518	21.018518	21.020000	21.020000	21.020000	21.000000	21.000000	20.958334	20.958334	21.000000	21.000000	21.000000	21.000000	21.000000	21.000000	21.000000	21.000000	20.976191	20.976191	20.976191	20.976191	20.964285	20.958334	20.958334	20.958334	20.981482	20.982759	20.982759	21.000000	21.017241	21.017241	21.023809	21.023809	21.023809	21.000000	21.000000	21.000000	21.000000	21.000000	21.000000	21.000000	21.000000	21.000000	21.000000	21.000000	21.021740	21.021740	21.018518	21.000000	20.978260	20.978260	20.978260	20.978260	20.978260	21.000000	21.000000	21.000000	21.000000	21.000000	21.020000	21.021740	21.021740	21.021740	21.018518	21.000000	21.000000	21.000000
19.916666	19.980000	19.982759	20.038462	20.017241	19.982759	19.982759	20.000000	20.000000	20.000000	20.000000	20.000000	20.000000	20.021740	20.021740	20.021740	20.021740	20.020000	20.020000	20.020000	20.020000	20.020000	20.021740	20.023809	20.023809	20.023809	20.023809	20.090910	20.090910	20.090910	20.071428	20.071428	20.062500	20.049999	20.049999	20.088236	20.088236	20.029411	19.900000	19.833334	19.566668	19.566668	19.566668	19.566668	19.666666	19.937500	23.108696	23.125000	23.868422	23.888889	23.888889	23.888889	23.868422	23.772728	23.730770	23.375000	23.195652	23.184210	23.142857	22.970589	22.966667	22.900000	22.700001	22.409090	22.299999	21.928572	21.807692	21.807692	21.807692	21.794117	21.794117	21.919355	21.919355	21.937500	21.958334	21.958334	21.934782	21.934782	21.934782	21.928572	21.928572	21.976191	21.976191	22.000000	21.933332	21.933332	21.933332	21.933332	21.928572	21.928572	21.928572	21.982759	21.982759	21.964285	21.961538	21.961538	21.961538	21.961538	21.982759	21.982759	21.982759	21.982759	21.981482	21.981482	21.981482	21.981482	21.980000	21.976191	21.964285	21.940001	21.940001	21.940001	21.934782	21.928572	21.928572	21.909090	21.909090	21.909090	21.833334	21.763159	21.763159	21.763159	21.428572	21.428572	21.357143	21.299999	21.152174	21.125000	21.083334	21.071428	21.038462	21.038462	21.049999	21.111111	21.115385	21.125000	21.166666	21.166666	21.312500	21.312500	21.277779	21.277779	21.115385	21.100000	21.029411	21.029411	21.055555	25.187500	25.187500	25.233334	25.264706	25.264706	25.416666	25.687500	25.687500	25.833334	25.852942	25.923077	25.923077	25.928572	25.940001	25.950001	25.976191	25.976191	25.978260	25.978260	25.976191	25.900000	25.857143	25.735294	25.566668	25.382353	25.222221	25.090910	25.090910	25.090910	25.090910	25.090910	25.100000	25.100000	25.115385	25.142857	25.142857	25.100000	25.100000	25.000000	24.433332	24.433332	24.433332	24.433332	24.433332	24.299999	24.071428	23.961538	21.250000	21.222221	21.222221	21.166666	21.119047	21.088236	21.020000	21.020000	21.000000	21.000000	21.000000	20.981482	20.981482	20.980000	21.000000	21.033333	21.000000	21.000000	21.000000	21.000000	21.000000	20.980000	20.980000	20.980000	20.978260	20.980000	21.000000	21.000000	21.000000	21.000000	21.000000	21.000000	21.000000	21.000000	21.000000	21.000000	21.000000	21.018518	21.018518	21.018518	21.020000	21.020000	21.000000	21.000000	21.000000	21.000000	21.000000	21.000000	21.000000	21.000000	21.000000	21.000000	21.000000	21.000000	20.980000	20.976191	20.976191	20.976191	20.976191	20.976191	20.961538	20.961538	20.981482	20.982759	21.000000	21.000000	21.000000	21.017241	21.017241	21.023809	21.023809	21.023809	21.000000	21.000000	21.000000	21.000000	21.000000	21.000000	21.000000	21.000000	21.000000	21.000000	21.021740	21.021740	21.021740	21.018518	20.978260	20.978260	20.978260	20.978260	21.000000	21.000000	21.000000	21.000000	21.000000	21.000000	21.000000	21.021740	21.021740	21.041666	21.021740	21.000000	21.000000	20.980000
19.958334	19.980000	20.000000	20.031250	20.031250	20.000000	20.000000	20.000000	20.000000	20.000000	20.000000	20.000000	20.000000	20.018518	20.021740	20.021740	20.020000	20.020000	20.020000	20.020000	20.020000	20.021740	20.023809	20.023809	20.023809	20.023809	20.000000	20.000000	20.000000	20.000000	20.029411	20.029411	20.049999	20.049999	20.062500	20.062500	20.029411	19.900000	19.833334	19.750000	19.566668	19.566668	19.566668	19.566668	19.566668	19.888889	20.000000	23.125000	23.888889	23.888889	23.888889	23.888889	23.833334	23.772728	23.730770	23.264706	23.184210	23.142857	22.970589	22.970589	22.928572	22.900000	22.700001	22.700001	22.409090	22.269230	21.928572	21.807692	21.807692	21.807692	21.868422	21.919355	21.937500	21.958334	21.958334	21.958334	21.934782	21.934782	21.934782	21.934782	21.934782	21.973684	21.976191	21.976191	21.933332	21.933332	21.933332	21.933332	21.958334	21.958334	21.982759	21.982759	21.982759	21.982759	21.964285	21.961538	21.961538	21.982759	21.982759	21.982759	21.982759	22.000000	21.982759	21.981482	21.981482	21.981482	21.980000	21.978260	21.964285	21.940001	21.940001	21.940001	21.940001	21.934782	21.928572	21.909090	21.909090	21.909090	21.833334	21.833334	21.763159	21.763159	21.735294	21.653847	21.653847	21.653847	21.312500	21.152174	21.152174	21.083334	21.071428	21.049999	21.049999	21.115385	21.115385	21.125000	21.166666	21.312500	21.312500	21.900000	21.900000	21.900000	21.944445	21.944445	21.944445	21.944445	23.000000	25.187500	25.285715	25.375000	25.666666	25.722221	25.722221	25.687500	25.687500	25.687500	25.833334	25.852942	25.913794	25.913794	25.913794	25.852942	25.852942	25.921053	25.976191	25.976191	25.973684	25.934782	25.857143	25.735294	25.566668	25.441177	25.222221	25.090910	25.065218	25.065218	25.045454	25.045454	25.078947	25.100000	25.142857	25.184210	25.166666	25.142857	25.100000	24.954546	24.433332	24.433332	24.433332	24.433332	24.346153	24.299999	24.071428	23.961538	23.857143	21.250000	21.222221	21.222221	21.166666	21.088236	21.055555	21.020000	21.020000	21.020000	21.000000	21.000000	21.000000	21.000000	21.031250	21.031250	21.000000	21.000000	21.000000	21.000000	21.000000	21.000000	21.000000	20.980000	20.978260	20.978260	21.000000	21.018518	21.000000	21.000000	20.950001	21.000000	21.000000	21.000000	21.000000	21.000000	21.000000	21.018518	21.018518	21.018518	21.018518	21.020000	21.020000	21.018518	21.018518	21.017241	21.000000	21.000000	21.000000	20.978260	21.000000	21.000000	21.000000	21.000000	21.000000	20.976191	20.976191	20.976191	20.981482	20.981482	20.981482	20.981482	20.981482	21.000000	21.000000	21.000000	21.000000	21.000000	21.000000	21.000000	21.000000	21.000000	21.000000	20.976191	20.976191	21.000000	21.000000	21.000000	21.000000	21.000000	21.000000	21.000000	21.016129	21.021740	21.020000	21.018518	21.000000	20.978260	21.000000	21.000000	21.000000	21.000000	21.000000	21.000000	21.000000	21.000000	21.000000	21.000000	21.021740	21.021740	21.021740	21.000000	21.000000	21.000000
19.980000	19.980000	19.980000	20.031250	20.031250	20.000000	20.000000	20.000000	20.000000	20.000000	20.000000	20.000000	20.000000	20.000000	20.018518	20.018518	20.018518	20.018518	20.020000	20.020000	20.026316	20.078947	20.131578	20.131578	20.071428	20.023809	20.023809	20.000000	20.000000	20.000000	20.000000	20.000000	20.000000	20.000000	20.049999	20.029411	19.900000	19.833334	19.750000	19.566668	19.566668	19.566668	19.566668	19.566668	19.566668	19.888889	19.937500	20.000000	23.888889	23.928572	23.928572	23.923077	23.888889	23.833334	23.730770	23.184210	23.166666	23.166666	23.000000	22.970589	22.928572	22.928572	22.700001	22.700001	22.700001	22.409090	21.928572	21.807692	21.807692	21.807692	21.812500	21.868422	21.919355	21.937500	21.958334	21.958334	21.944445	21.934782	21.934782	21.934782	21.934782	21.973684	21.976191	21.976191	21.933332	21.933332	21.933332	21.958334	21.958334	21.978260	21.982759	22.000000	22.000000	21.982759	21.964285	21.964285	21.982759	21.982759	21.982759	21.982759	22.000000	22.000000	21.982759	21.981482	21.981482	21.981482	21.978260	21.978260	21.940001	21.940001	21.940001	21.940001	21.940001	21.928572	21.888889	21.868422	21.852942	21.833334	21.833334	21.763159	21.750000	21.735294	21.653847	21.653847	21.653847	21.653847	21.312500	21.187500	21.152174	21.083334	21.071428	21.071428	21.071428	21.088236	21.115385	21.115385	21.125000	21.166666	21.312500	21.312500	21.900000	21.900000	21.944445	21.944445	21.944445	21.944445	23.000000	25.187500	25.375000	25.583334	25.583334	25.666666	25.687500	25.687500	25.676470	25.676470	25.687500	25.833334	25.833334	25.850000	25.852942	25.852942	25.852942	25.928572	25.966667	25.973684	25.961538	25.934782	25.888889	25.833334	25.583334	25.566668	25.227272	25.090910	25.065218	25.045454	25.045454	25.045454	25.078947	25.100000	25.184210	25.187500	25.184210	25.142857	25.045454	24.966667	24.934782	24.433332	24.433332	24.433332	24.433332	24.346153	24.071428	24.000000	23.857143	21.250000	21.222221	21.222221	21.166666	21.083334	21.055555	21.020000	21.020000	21.020000	21.000000	21.000000	21.000000	21.023809	21.031250	21.031250	21.000000	21.000000	21.000000	21.000000	21.000000	21.000000	21.000000	21.000000	20.978260	20.978260	21.018518	21.018518	21.018518	21.000000	20.950001	20.950001	21.000000	21.000000	21.000000	21.000000	21.000000	21.000000	21.018518	21.018518	21.018518	21.020000	21.020000	21.020000	21.020000	21.021740	21.021740	21.000000	20.978260	20.978260	21.000000	21.000000	21.000000	21.000000	21.020000	21.000000	20.976191	20.980000	20.981482	20.981482	20.981482	20.981482	21.000000	21.000000	21.000000	21.000000	21.000000	21.000000	21.000000	21.000000	21.000000	21.000000	20.976191	20.976191	20.976191	20.978260	21.000000	21.000000	21.000000	21.000000	21.000000	21.000000	21.000000	21.016129	21.018518	21.018518	21.018518	21.018518	21.018518	21.000000	21.000000	21.000000	21.000000	21.000000	21.000000	21.000000	21.000000	21.000000	21.000000	21.021740	21.021740	21.018518	21.000000	21.000000
19.980000	19.980000	19.980000	20.020000	20.031250	20.031250	20.031250	20.031250	20.033333	20.014286	20.014286	20.000000	20.000000	20.000000	20.000000	20.018518	20.018518	20.020000	20.020000	20.026316	20.041666	20.078947	20.107143	20.111111	20.111111	20.111111	20.125000	20.125000	20.125000	20.045454	20.000000	20.000000	20.000000	20.000000	20.000000	19.900000	19.833334	19.750000	19.676470	19.566668	19.566668	19.566668	19.566668	19.566668	19.888889	19.937500	20.000000	23.833334	23.928572	23.950001	23.928572	23.928572	23.923077	23.909090	23.833334	23.312500	23.312500	23.285715	23.100000	23.000000	22.961538	22.928572	22.700001	22.700001	22.700001	22.409090	21.807692	21.772728	21.807692	21.807692	21.807692	21.812500	21.913794	21.916666	21.958334	21.958334	21.944445	21.928572	21.928572	21.934782	21.934782	21.973684	21.976191	21.976191	21.950001	21.933332	21.950001	21.954546	21.958334	21.982759	22.000000	22.000000	22.000000	22.000000	21.982759	21.982759	21.982759	21.982759	21.982759	21.982759	21.982759	22.000000	21.982759	21.982759	21.981482	21.978260	21.961538	21.940001	21.940001	21.940001	21.940001	21.940001	21.940001	21.928572	21.928572	21.888889	21.868422	21.852942	21.833334	21.833334	21.763159	21.750000	21.735294	21.653847	21.653847	21.653847	21.653847	21.312500	21.187500	21.152174	21.083334	21.083334	21.088236	21.088236	21.115385	21.115385	21.125000	21.166666	21.312500	21.312500	21.900000	21.944445	21.944445	21.944445	21.944445	22.978260	23.000000	23.062500	25.187500	25.375000	25.428572	25.428572	25.666666	25.687500	25.687500	25.687500	25.687500	25.833334	25.833334	25.850000	25.852942	25.900000	25.916666	25.928572	25.961538	25.961538	25.934782	25.934782	25.934782	25.888889	25.777779	25.583334	25.433332	25.136364	25.065218	25.045454	25.045454	25.045454	25.055555	25.078947	25.100000	25.184210	25.142857	25.045454	24.973684	24.970589	24.966667	24.934782	24.833334	24.833334	24.833334	24.730770	24.730770	24.071428	24.000000	21.250000	21.222221	21.100000	21.083334	21.055555	21.000000	21.000000	21.000000	21.000000	21.000000	21.000000	21.000000	21.000000	21.000000	21.000000	21.000000	21.000000	21.000000	21.000000	21.000000	21.000000	21.000000	21.000000	21.000000	21.000000	21.018518	21.018518	21.018518	21.018518	21.000000	21.000000	21.000000	21.000000	21.000000	21.000000	21.000000	21.000000	21.000000	21.018518	21.018518	21.018518	21.020000	21.020000	21.020000	21.021740	21.021740	21.021740	20.978260	20.981482	21.000000	21.000000	21.000000	21.000000	21.000000	21.000000	20.980000	20.980000	20.981482	20.981482	20.981482	21.000000	21.000000	21.000000	21.000000	21.000000	21.000000	21.000000	21.000000	21.000000	21.000000	21.000000	20.976191	20.976191	20.978260	20.978260	21.000000	21.000000	21.000000	21.000000	21.000000	21.000000	21.000000	21.018518	21.023809	21.023809	21.021740	21.018518	21.018518	21.000000	21.000000	21.000000	21.000000	21.000000	21.000000	21.000000	21.000000	21.000000	21.000000	21.000000	21.018518	21.018518	21.018518	21.018518
19.981482	19.980000	20.020000	20.020000	20.020000	20.031250	20.031250	20.033333	20.033333	20.021740	20.014286	20.000000	20.000000	20.000000	20.000000	20.000000	20.018518	20.020000	20.020000	20.026316	20.041666	20.049999	20.065218	20.107143	20.111111	20.125000	20.125000	20.125000	20.125000	20.045454	20.045454	20.000000	20.000000	20.000000	20.000000	20.000000	19.833334	19.833334	19.750000	19.676470	19.676470	23.833334	23.909090	23.940001	23.940001	23.961538	23.891304	23.891304	23.891304	23.928572	23.928572	23.923077	23.909090	23.909090	23.785715	23.323530	23.312500	23.166666	23.100000	22.966667	22.928572	22.833334	22.700001	21.590910	21.590910	21.590910	21.590910	21.590910	21.772728	21.807692	21.812500	21.892857	21.913794	21.916666	21.958334	21.958334	21.928572	21.916666	21.900000	21.868422	21.928572	21.934782	21.976191	21.976191	21.976191	21.950001	21.954546	21.958334	21.958334	21.981482	21.982759	22.000000	22.000000	22.000000	22.000000	21.982759	21.982759	21.982759	21.982759	21.982759	22.000000	22.000000	22.000000	21.982759	21.982759	21.978260	21.961538	21.958334	21.940001	21.940001	21.940001	21.940001	21.940001	21.928572	21.928572	21.888889	21.868422	21.852942	21.833334	21.833334	21.763159	21.763159	21.750000	21.735294	21.653847	21.653847	21.653847	21.423077	21.423077	21.423077	21.423077	21.423077	21.423077	21.633333	21.633333	21.633333	21.633333	22.375000	22.617647	22.804348	22.900000	22.958334	22.954546	22.944445	22.944445	22.944445	22.978260	23.000000	23.000000	20.000000	20.000000	25.382353	25.428572	25.666666	25.687500	25.687500	25.687500	25.833334	25.850000	25.863636	25.944445	25.916666	25.916666	25.916666	25.916666	25.916666	25.934782	25.934782	25.934782	25.888889	25.777779	25.583334	25.433332	25.136364	25.045454	25.041666	25.041666	25.045454	25.055555	25.062500	25.062500	25.062500	25.045454	25.000000	24.973684	24.973684	24.970589	24.937500	24.833334	24.833334	24.833334	24.730770	24.730770	24.026316	24.000000	21.250000	21.100000	21.083334	21.055555	21.020000	21.000000	21.000000	21.000000	21.000000	21.000000	21.000000	21.000000	21.000000	21.000000	21.000000	21.000000	21.000000	21.000000	21.000000	21.000000	21.000000	21.000000	21.000000	21.000000	21.000000	21.000000	21.000000	21.018518	21.018518	21.018518	21.029411	21.023809	21.000000	21.000000	21.000000	21.000000	21.000000	21.000000	21.000000	21.000000	21.000000	21.018518	21.020000	21.020000	21.021740	21.021740	21.021740	21.000000	21.000000	21.000000	21.000000	21.000000	21.000000	21.000000	21.000000	21.000000	21.000000	21.000000	21.000000	21.000000	21.000000	21.000000	21.000000	21.000000	21.000000	21.000000	21.000000	21.000000	21.000000	21.000000	21.000000	20.978260	20.978260	20.978260	20.978260	21.000000	21.000000	21.000000	21.000000	21.000000	21.000000	21.000000	21.018518	21.023809	21.023809	21.021740	21.018518	21.018518	20.981482	21.000000	21.000000	21.000000	21.000000	21.000000	21.000000	21.000000	21.000000	21.000000	21.000000	21.018518	21.018518	21.018518	21.018518
20.000000	20.000000	20.020000	20.020000	20.020000	20.020000	20.031250	20.033333	20.033333	20.021740	20.000000	20.000000	20.000000	20.000000	20.000000	20.000000	20.000000	20.018518	20.020000	20.023809	20.041666	20.049999	20.055555	20.078947	20.111111	20.125000	20.125000	20.125000	20.045454	19.966667	20.000000	20.000000	20.000000	20.071428	20.033333	20.000000	19.900000	19.833334	19.833334	19.833334	23.617647	23.763159	23.909090	23.940001	23.940001	23.961538	23.961538	23.891304	23.852942	23.852942	23.852942	23.833334	23.815790	23.714285	23.681818	23.323530	23.184210	23.166666	23.062500	22.928572	22.884615	22.833334	22.700001	21.590910	21.590910	21.566668	21.566668	21.566668	21.590910	21.772728	21.812500	21.892857	21.916666	21.940001	21.958334	21.958334	21.916666	21.900000	21.868422	21.868422	21.868422	21.928572	21.976191	21.976191	21.976191	21.976191	21.958334	21.958334	21.966667	21.981482	21.982759	22.000000	22.000000	22.000000	22.000000	21.982759	21.982759	21.982759	21.982759	22.000000	22.000000	22.000000	22.000000	21.982759	21.982759	21.982759	21.982759	21.976191	21.958334	21.940001	21.940001	21.940001	21.940001	21.940001	21.928572	21.888889	21.868422	21.833334	21.812500	21.763159	21.763159	21.763159	21.750000	21.653847	21.576923	21.375000	21.375000	21.423077	21.423077	21.423077	21.423077	21.423077	21.423077	21.423077	21.423077	21.423077	21.633333	21.633333	22.375000	22.617647	22.804348	22.900000	22.944445	22.944445	22.944445	20.071428	20.059999	20.020000	20.000000	19.954546	19.870371	19.870371	20.000000	20.000000	20.000000	20.000000	20.000000	25.687500	25.833334	25.850000	25.863636	25.900000	25.900000	25.879311	25.879311	25.907408	25.907408	25.879311	25.815790	25.714285	25.375000	25.375000	25.312500	25.136364	25.045454	25.041666	25.041666	25.041666	25.045454	25.055555	25.055555	25.045454	25.000000	24.973684	24.973684	24.973684	24.937500	24.937500	24.833334	24.812500	24.147058	23.976191	23.976191	23.976191	21.250000	21.083334	21.065218	21.055555	21.055555	21.055555	21.014286	21.000000	21.000000	21.000000	21.000000	21.000000	21.000000	21.000000	21.000000	21.000000	21.000000	21.000000	21.000000	21.000000	21.000000	21.000000	21.000000	21.000000	21.000000	21.000000	20.961538	20.961538	21.000000	21.000000	21.018518	21.018518	21.000000	20.970589	20.916666	20.916666	21.000000	21.000000	21.000000	21.000000	21.000000	21.000000	21.000000	21.020000	21.020000	21.021740	21.021740	21.021740	21.000000	21.000000	21.000000	21.000000	21.000000	21.000000	21.000000	21.000000	21.000000	21.000000	21.000000	21.000000	21.000000	21.000000	21.000000	21.000000	21.000000	21.000000	21.000000	21.000000	21.000000	21.000000	21.000000	21.000000	21.000000	20.978260	20.978260	20.978260	20.980000	21.000000	21.000000	21.000000	21.000000	21.000000	21.000000	21.018518	21.018518	21.018518	21.018518	21.018518	21.000000	21.000000	21.000000	21.000000	21.000000	21.023809	21.023809	21.000000	21.000000	21.000000	21.000000	21.000000	21.000000	21.000000	21.018518	21.018518
20.020000	20.020000	20.020000	20.020000	20.020000	20.020000	20.020000	20.033333	20.033333	20.020000	20.000000	20.000000	20.000000	20.000000	20.000000	20.000000	20.018518	20.021740	20.023809	20.023809	20.049999	20.055555	20.078947	20.111111	20.111111	20.125000	20.125000	20.125000	20.125000	20.045454	20.000000	20.000000	20.108696	20.108696	20.071428	20.000000	19.900000	19.833334	19.833334	23.617647	23.617647	23.687500	23.863636	23.916666	23.940001	23.961538	23.961538	23.954546	23.891304	23.852942	23.833334	23.815790	23.815790	23.815790	23.714285	23.437500	23.323530	23.184210	23.100000	22.954546	22.884615	22.863636	22.700001	21.642857	21.590910	21.576923	21.566668	21.576923	21.590910	21.714285	21.812500	21.900000	21.928572	21.958334	21.958334	21.948277	21.916666	21.900000	21.900000	21.868422	21.900000	21.950001	21.976191	21.976191	21.976191	21.976191	21.976191	21.976191	21.981482	21.982759	22.000000	22.000000	22.000000	22.000000	21.981482	21.981482	21.982759	21.982759	22.000000	22.000000	22.000000	22.000000	22.000000	22.000000	22.000000	22.000000	22.000000	21.982759	21.958334	21.950001	21.940001	21.940001	21.958334	21.976191	21.976191	21.976191	21.888889	21.868422	21.833334	21.812500	21.794117	21.794117	21.763159	21.653847	21.576923	21.375000	21.375000	21.375000	21.375000	21.299999	21.208334	21.038462	21.000000	21.000000	20.964285	20.875000	20.750000	20.676470	20.676470	20.676470	20.633333	20.633333	20.200001	20.045454	20.000000	20.000000	20.000000	20.000000	19.954546	19.815790	19.815790	19.870371	19.870371	19.870371	19.870371	19.722221	19.722221	19.342106	19.222221	19.750000	19.909090	19.909090	25.875000	25.875000	25.875000	25.879311	25.879311	25.815790	25.617647	25.375000	25.312500	25.312500	25.236841	25.136364	25.107143	25.041666	24.973684	24.973684	24.973684	24.973684	24.973684	24.973684	24.973684	24.970589	24.970589	24.888889	24.888889	24.888889	21.020000	21.020000	21.020000	21.020000	21.020000	21.000000	21.000000	21.000000	21.021740	21.055555	21.055555	21.055555	21.051723	21.014286	21.000000	21.000000	21.000000	21.000000	21.000000	21.000000	21.000000	21.000000	21.000000	21.000000	21.000000	20.966667	20.966667	21.000000	21.000000	21.023809	21.000000	20.961538	20.911764	20.911764	20.911764	20.911764	20.911764	20.785715	20.785715	20.785715	20.785715	20.785715	20.833334	21.000000	21.000000	21.000000	21.000000	21.000000	21.000000	21.000000	21.020000	21.020000	21.021740	21.020000	21.000000	21.000000	21.000000	21.000000	21.000000	21.000000	21.000000	21.000000	21.000000	21.000000	21.000000	21.000000	21.000000	21.000000	21.000000	21.000000	21.000000	21.000000	21.000000	21.000000	21.000000	21.000000	21.000000	21.000000	21.000000	21.000000	21.000000	21.000000	21.000000	21.000000	21.000000	21.000000	21.000000	21.000000	21.018518	21.035715	21.035715	21.018518	21.018518	21.018518	21.000000	21.000000	21.000000	21.000000	21.021740	21.023809	21.071428	21.023809	21.000000	21.000000	21.000000	21.000000	21.000000	21.000000	21.000000	21.018518
20.026316	20.026316	20.026316	20.026316	20.020000	20.020000	20.020000	20.033333	20.033333	20.020000	20.020000	20.000000	20.000000	20.000000	20.023809	20.059999	20.059999	20.023809	20.023809	20.023809	20.041666	20.055555	20.078947	20.111111	20.115385	20.125000	20.125000	20.125000	20.125000	20.192308	20.192308	20.192308	20.192308	20.205883	20.205883	20.000000	19.900000	19.863636	19.863636	19.900000	23.617647	23.687500	23.807692	23.863636	23.916666	23.940001	23.954546	23.961538	23.954546	23.852942	23.815790	23.815790	23.815790	23.815790	23.714285	23.437500	23.366667	23.285715	23.184210	23.100000	22.954546	22.863636	22.750000	22.000000	21.642857	21.590910	21.576923	21.576923	21.642857	21.763159	21.891304	21.900000	21.928572	21.958334	21.958334	21.948277	21.934782	21.934782	21.940001	21.964285	21.964285	21.976191	21.976191	21.976191	21.976191	21.976191	21.976191	21.976191	21.981482	22.000000	22.071428	22.055555	22.000000	22.000000	21.981482	21.981482	21.982759	22.000000	22.000000	22.000000	22.000000	22.000000	22.000000	22.000000	22.000000	22.000000	22.000000	21.981482	21.950001	21.940001	21.940001	21.940001	21.958334	21.961538	21.976191	21.976191	21.973684	21.973684	21.973684	21.900000	21.888889	21.888889	21.888889	21.888889	21.653847	21.576923	21.375000	21.375000	21.375000	21.375000	21.299999	21.208334	21.000000	21.000000	20.875000	20.875000	20.750000	20.750000	20.676470	20.676470	20.676470	20.633333	20.633333	20.200001	20.045454	20.000000	20.000000	20.000000	19.954546	19.815790	19.250000	19.250000	19.366667	19.870371	19.870371	19.870371	19.722221	19.722221	19.722221	19.909090	19.909090	25.875000	25.875000	25.875000	25.875000	25.875000	25.847826	25.847826	25.750000	25.375000	25.312500	25.289474	25.236841	25.108696	25.108696	24.973684	24.973684	24.973684	24.973684	24.973684	24.973684	24.973684	24.973684	24.973684	24.970589	24.888889	24.888889	24.888889	21.020000	21.020000	21.020000	21.020000	21.020000	21.000000	21.000000	21.000000	21.000000	21.021740	21.041666	21.041666	21.045454	21.045454	21.000000	21.000000	21.000000	21.000000	21.000000	21.000000	21.000000	21.000000	21.000000	21.000000	20.978260	20.966667	20.966667	20.966667	21.000000	21.000000	21.000000	20.911764	20.911764	20.911764	20.911764	20.911764	20.911764	20.785715	20.785715	20.785715	20.785715	20.785715	20.785715	21.000000	21.000000	21.000000	21.000000	21.000000	21.000000	21.000000	21.000000	21.020000	21.020000	21.020000	21.000000	21.000000	21.000000	21.000000	21.000000	21.000000	21.000000	21.000000	21.000000	21.000000	21.000000	21.000000	21.000000	21.000000	21.000000	21.000000	21.000000	21.000000	21.000000	21.000000	21.000000	21.000000	21.000000	21.000000	21.000000	21.000000	21.000000	21.000000	21.000000	21.000000	21.000000	21.000000	21.000000	21.038462	21.038462	21.078947	21.078947	21.071428	21.018518	21.018518	21.018518	21.000000	21.000000	21.000000	21.021740	21.033333	21.033333	21.023809	21.000000	21.000000	21.000000	21.000000	21.000000	21.000000	21.000000	21.000000
20.078947	20.026316	20.026316	20.026316	20.020000	20.020000	20.020000	20.033333	20.033333	20.033333	20.065218	20.020000	20.000000	20.000000	20.023809	20.023809	20.023809	20.023809	20.023809	20.023809	20.041666	20.049999	20.076923	20.078947	20.111111	20.115385	20.115385	20.115385	20.125000	20.125000	20.166666	20.166666	20.192308	20.192308	20.142857	20.000000	19.880953	19.863636	19.863636	19.863636	19.900000	23.687500	23.687500	23.763159	23.916666	23.940001	23.940001	23.954546	23.911764	23.911764	23.815790	23.815790	23.750000	23.687500	23.437500	23.433332	23.285715	23.200001	23.147058	23.100000	22.954546	22.863636	22.750000	22.576923	22.000000	21.863636	21.653847	21.642857	21.763159	21.891304	21.891304	21.928572	22.000000	21.958334	21.954546	21.954546	21.954546	21.954546	21.964285	21.964285	21.964285	21.964285	21.976191	21.976191	21.976191	21.976191	21.976191	21.976191	22.026316	22.071428	22.071428	22.055555	22.055555	22.000000	21.981482	21.981482	22.000000	22.000000	22.000000	22.000000	22.000000	22.000000	22.000000	22.000000	22.000000	22.000000	22.000000	21.981482	21.950001	21.948277	21.940001	21.940001	21.961538	21.961538	21.976191	21.976191	21.973684	21.973684	21.973684	21.973684	21.900000	21.900000	21.923077	21.923077	21.921053	21.921053	21.928572	21.950001	21.973684	21.973684	21.966667	21.900000	21.416666	21.000000	21.000000	21.000000	22.884615	22.916666	22.916666	22.937500	22.937500	22.937500	22.850000	22.850000	22.785715	22.785715	22.735294	22.700001	22.700001	19.954546	19.815790	19.366667	19.870371	25.933332	25.933332	25.933332	25.933332	25.928572	25.928572	25.928572	25.928572	25.928572	25.928572	25.928572	25.928572	25.875000	25.847826	25.847826	25.750000	25.633333	25.375000	25.289474	25.236841	25.131578	25.108696	24.973684	24.973684	24.973684	25.029411	25.029411	25.038462	25.038462	25.115385	25.115385	25.100000	24.888889	24.888889	24.888889	24.888889	21.020000	21.020000	21.020000	21.020000	21.020000	21.020000	21.000000	21.000000	21.000000	21.000000	21.000000	21.041666	21.045454	21.020000	21.000000	21.000000	21.000000	21.000000	21.000000	21.000000	21.000000	21.000000	21.000000	21.000000	20.973684	20.966667	20.966667	20.966667	20.966667	20.900000	20.900000	20.911764	20.911764	20.911764	20.911764	20.911764	20.785715	20.785715	20.785715	20.785715	20.785715	20.785715	20.785715	21.000000	21.000000	21.000000	21.000000	21.000000	21.000000	21.000000	21.000000	21.000000	20.978260	21.000000	21.000000	21.000000	21.000000	21.000000	21.000000	21.000000	21.000000	21.000000	21.000000	21.000000	21.000000	21.000000	21.000000	21.000000	21.000000	21.000000	20.983871	20.983871	21.000000	21.000000	20.976191	20.976191	20.976191	21.000000	21.000000	21.000000	21.000000	21.000000	21.000000	21.000000	21.000000	21.038462	21.038462	21.078947	21.078947	21.100000	21.100000	21.100000	21.018518	21.018518	21.000000	21.000000	21.021740	21.021740	21.021740	21.021740	21.021740	21.000000	21.000000	21.000000	21.000000	21.000000	21.000000	21.000000	21.000000
20.071428	20.026316	20.026316	20.026316	20.026316	20.020000	20.020000	20.020000	20.033333	20.033333	20.033333	20.033333	20.020000	20.023809	20.023809	20.023809	20.023809	20.023809	20.023809	20.023809	20.041666	20.041666	20.041666	20.071428	20.078947	20.111111	20.111111	19.973684	20.000000	20.000000	20.000000	20.000000	20.049999	20.142857	20.142857	20.142857	20.000000	19.880953	19.863636	19.863636	20.000000	23.687500	23.763159	23.875000	23.940001	23.940001	23.940001	23.911764	23.911764	23.911764	23.911764	23.815790	23.815790	23.750000	23.687500	23.437500	23.433332	23.285715	23.200001	23.147058	23.100000	22.954546	22.799999	22.750000	22.576923	22.166666	21.978260	21.900000	21.900000	21.891304	21.891304	21.950001	21.958334	21.958334	21.954546	21.954546	21.954546	21.954546	21.958334	21.964285	21.964285	21.976191	21.976191	21.976191	21.976191	21.976191	21.976191	22.021740	22.026316	22.026316	22.000000	22.000000	22.045454	22.000000	21.983871	21.983871	22.000000	22.000000	22.000000	22.000000	22.000000	22.000000	22.000000	22.000000	22.000000	22.000000	22.000000	21.981482	21.950001	21.948277	21.948277	21.954546	21.961538	21.961538	21.961538	21.961538	21.961538	21.973684	21.973684	21.973684	21.973684	21.923077	21.923077	21.923077	21.921053	21.921053	21.950001	22.000000	22.000000	22.000000	21.966667	21.966667	21.416666	21.000000	21.000000	22.884615	24.875000	24.911764	25.026316	25.026316	22.961538	22.961538	22.961538	22.961538	25.062500	25.062500	25.131578	25.131578	25.131578	25.139999	25.139999	25.139999	25.152174	25.617647	25.933332	25.933332	25.933332	25.933332	25.933332	25.933332	25.934782	25.961538	25.980000	25.937500	25.928572	25.891304	25.847826	25.777779	25.735294	25.722221	25.653847	25.375000	25.250000	25.184210	25.119047	25.045454	24.973684	24.973684	25.029411	25.038462	25.038462	25.038462	25.100000	25.100000	25.100000	25.100000	25.000000	25.000000	25.021740	25.200001	25.233334	25.233334	25.049999	21.020000	21.020000	21.000000	21.000000	21.000000	21.000000	21.000000	21.018518	21.020000	21.020000	21.000000	21.000000	21.000000	21.000000	21.000000	21.000000	21.000000	21.000000	21.000000	21.000000	21.000000	20.966667	20.966667	20.863636	20.785715	20.785715	20.833334	20.833334	20.833334	20.833334	19.192308	19.192308	19.119047	19.071428	19.071428	19.017241	19.017241	19.041666	19.111111	19.111111	19.125000	19.136364	19.136364	19.136364	20.916666	20.916666	20.970589	20.970589	20.978260	21.000000	21.000000	21.000000	21.000000	21.000000	20.961538	21.000000	21.000000	21.000000	21.000000	21.000000	21.000000	21.000000	21.000000	21.000000	21.000000	21.000000	20.983871	20.983871	20.983871	20.928572	20.928572	20.928572	20.928572	20.976191	21.000000	21.000000	21.000000	21.000000	21.000000	21.000000	21.000000	21.038462	21.078947	21.078947	21.100000	21.100000	21.100000	21.100000	21.100000	21.018518	21.000000	21.000000	21.021740	21.021740	21.021740	21.021740	21.000000	21.000000	21.000000	21.000000	21.000000	21.000000	21.000000	21.000000	21.000000
20.045454	20.026316	20.026316	20.026316	20.026316	20.021740	20.020000	20.020000	20.033333	20.033333	20.033333	20.033333	20.038462	20.038462	20.038462	20.023809	20.021740	20.023809	20.023809	20.041666	20.041666	20.041666	20.041666	20.071428	20.111111	20.111111	20.111111	20.100000	20.000000	20.000000	20.000000	20.000000	20.000000	20.049999	20.142857	22.937500	23.000000	23.065218	23.150000	23.200001	23.375000	23.625000	23.687500	23.763159	23.875000	23.880953	23.880953	23.880953	23.880953	23.911764	23.911764	23.911764	23.888889	23.833334	23.833334	23.833334	23.700001	23.633333	23.285715	23.250000	23.200001	23.000000	22.954546	22.750000	22.600000	22.388889	22.071428	21.976191	21.900000	21.891304	21.891304	21.950001	21.950001	21.948277	21.928572	21.928572	21.940001	21.954546	21.958334	21.964285	21.964285	21.976191	21.976191	21.976191	21.976191	21.976191	21.976191	22.021740	22.026316	22.026316	22.000000	22.000000	22.000000	22.021740	22.021740	22.021740	22.000000	22.000000	22.000000	22.000000	22.000000	22.000000	22.000000	22.000000	22.000000	22.000000	22.000000	21.982759	21.950001	21.948277	21.948277	21.948277	21.948277	21.921053	21.921053	21.921053	21.921053	21.921053	21.950001	21.973684	21.923077	21.921053	21.921053	21.888889	21.888889	21.888889	21.921053	21.950001	22.000000	21.966667	21.966667	21.700001	21.416666	21.000000	21.000000	22.884615	24.875000	24.944445	25.026316	25.029411	25.029411	25.029411	25.041666	25.062500	25.062500	25.100000	25.131578	25.131578	25.150000	25.150000	25.139999	25.152174	25.285715	25.617647	25.868422	25.933332	25.933332	25.933332	25.933332	25.933332	25.934782	25.980000	25.980000	25.980000	25.937500	25.928572	25.891304	25.847826	25.777779	25.763159	25.763159	25.653847	25.312500	25.187500	25.181818	25.045454	24.973684	24.973684	25.029411	25.038462	25.038462	24.944445	24.970589	25.100000	25.100000	25.100000	25.100000	25.131578	25.299999	25.299999	25.299999	25.299999	25.049999	21.020000	21.000000	21.000000	21.000000	21.000000	21.000000	21.018518	21.018518	21.018518	21.018518	21.000000	21.000000	21.000000	21.000000	21.000000	21.000000	21.000000	21.000000	21.000000	21.000000	20.970589	20.961538	20.833334	20.785715	20.785715	20.785715	20.642857	20.642857	20.055555	19.192308	19.192308	19.119047	19.071428	19.071428	19.017241	19.017241	19.017241	19.041666	19.111111	19.111111	19.131578	19.131578	19.131578	19.125000	19.125000	20.863636	20.863636	20.911764	20.970589	21.000000	21.000000	21.000000	21.000000	21.000000	21.000000	21.000000	21.000000	21.000000	21.000000	21.000000	21.000000	21.000000	21.000000	21.000000	21.000000	21.000000	21.000000	20.983871	20.983871	20.983871	20.928572	20.928572	20.928572	20.976191	21.000000	21.000000	21.000000	21.000000	21.000000	21.000000	21.000000	21.000000	21.038462	21.078947	21.078947	21.100000	21.100000	21.100000	21.100000	21.100000	21.045454	21.045454	21.038462	21.038462	21.021740	21.000000	21.000000	21.000000	21.000000	21.000000	21.000000	21.000000	21.000000	21.000000	21.000000
20.045454	20.026316	20.026316	20.026316	20.026316	20.021740	20.020000	20.033333	20.035715	20.035715	20.035715	20.041666	20.041666	20.038462	20.023809	20.020000	20.020000	20.020000	20.023809	20.041666	20.045454	20.045454	20.055555	20.111111	20.111111	20.111111	20.100000	20.100000	20.033333	20.033333	20.033333	20.000000	20.000000	20.000000	20.142857	23.000000	23.055555	23.119047	23.187500	23.200001	23.277779	23.375000	23.611111	23.611111	23.611111	23.722221	23.722221	23.722221	23.785715	23.785715	23.911764	23.911764	23.888889	23.860001	23.852942	23.852942	23.833334	23.633333	23.289474	23.277779	23.200001	23.000000	22.950001	22.666666	22.400000	22.277779	22.071428	21.976191	21.900000	21.891304	21.900000	21.948277	21.948277	21.916666	21.916666	21.928572	21.940001	21.958334	21.958334	21.958334	21.964285	21.976191	21.976191	21.976191	21.976191	21.976191	21.976191	22.000000	22.021740	22.021740	22.000000	22.000000	22.021740	22.026316	22.021740	22.021740	22.000000	22.000000	22.000000	22.000000	22.000000	22.000000	22.000000	22.000000	22.000000	22.000000	22.000000	21.982759	21.978260	21.950001	21.948277	21.948277	21.944445	21.944445	21.921053	21.921053	21.921053	21.921053	21.921053	21.900000	21.868422	21.868422	21.888889	21.888889	21.888889	21.868422	21.852942	21.852942	21.653847	21.583334	21.583334	21.416666	21.205883	21.115385	21.115385	24.785715	24.833334	24.944445	25.026316	25.029411	25.078947	25.131578	25.136364	25.136364	25.100000	25.131578	25.147058	25.187500	25.250000	25.277779	25.423077	25.576923	25.750000	25.850000	25.891304	25.900000	25.900000	25.833334	25.833334	25.875000	25.933332	25.964285	25.980000	25.980000	25.944445	25.934782	25.928572	25.909090	25.880953	25.833334	25.763159	25.735294	25.583334	25.236841	25.187500	25.107143	25.000000	25.000000	25.000000	24.958334	24.954546	24.954546	24.970589	25.062500	25.100000	25.100000	25.131578	25.299999	25.299999	25.299999	25.299999	25.299999	25.049999	21.020000	21.020000	21.000000	21.000000	21.000000	21.000000	21.018518	21.018518	21.018518	21.000000	21.000000	21.049999	21.049999	21.000000	21.000000	21.000000	21.000000	21.000000	21.000000	21.000000	20.961538	20.857143	20.799999	20.785715	20.038462	19.916666	19.600000	19.583334	19.333334	19.192308	19.119047	19.049999	19.031250	19.017241	19.017241	19.017241	19.017241	19.017241	19.041666	19.111111	19.131578	19.131578	19.125000	19.071428	19.071428	19.071428	20.852942	20.863636	20.921053	21.000000	21.000000	21.000000	21.000000	21.000000	21.000000	21.000000	21.000000	21.000000	21.000000	21.000000	21.000000	21.000000	21.000000	21.000000	21.000000	21.000000	21.000000	21.000000	21.000000	21.000000	20.983871	20.958334	20.961538	21.000000	21.000000	21.000000	21.000000	21.000000	21.000000	21.000000	21.000000	20.976191	20.973684	20.973684	21.045454	21.045454	20.785715	20.785715	21.100000	21.045454	21.045454	21.045454	21.041666	21.041666	21.038462	21.000000	21.000000	21.000000	21.000000	21.000000	21.000000	21.000000	21.000000	21.000000	21.000000
20.071428	20.071428	20.026316	20.026316	20.026316	20.026316	20.033333	20.083334	20.108696	20.108696	20.041666	20.041666	20.041666	20.038462	20.023809	20.021740	20.020000	20.020000	20.023809	20.045454	20.045454	20.055555	20.125000	20.166666	20.166666	20.111111	20.111111	20.100000	20.100000	20.071428	20.071428	20.071428	20.000000	20.000000	20.250000	20.250000	23.000000	23.055555	23.119047	23.187500	23.200001	23.277779	23.611111	23.611111	23.611111	23.722221	23.722221	23.722221	23.785715	23.785715	23.911764	23.911764	23.888889	23.860001	23.852942	23.852942	23.785715	23.428572	23.289474	23.277779	23.184210	22.950001	22.833334	22.666666	22.400000	22.277779	22.071428	22.000000	21.900000	21.900000	21.900000	21.916666	21.916666	21.916666	21.833334	21.916666	21.940001	21.958334	21.958334	21.958334	21.964285	21.976191	21.976191	21.978260	21.978260	21.976191	21.976191	22.000000	22.000000	22.000000	22.000000	22.000000	22.021740	22.026316	22.026316	22.021740	22.021740	22.000000	22.000000	22.000000	22.000000	22.000000	22.000000	22.000000	22.000000	22.000000	22.000000	21.984848	21.978260	21.950001	21.950001	21.948277	21.948277	21.944445	21.944445	21.921053	21.921053	21.921053	21.921053	21.900000	21.868422	21.868422	21.868422	21.868422	21.868422	21.852942	21.852942	21.750000	21.653847	21.583334	21.416666	21.205883	21.184210	21.184210	21.184210	22.055555	24.833334	24.911764	24.970589	25.078947	25.131578	25.187500	25.250000	25.264706	25.333334	25.333334	25.299999	25.299999	25.299999	25.423077	25.576923	25.750000	25.833334	25.891304	25.900000	25.900000	25.900000	25.880953	25.868422	25.868422	25.921053	25.958334	25.964285	25.958334	25.934782	25.934782	25.934782	25.934782	25.909090	25.880953	25.833334	25.763159	25.735294	25.583334	25.236841	25.181818	25.020000	25.000000	24.973684	24.958334	24.958334	25.023809	25.062500	25.083334	25.100000	25.131578	25.131578	25.299999	25.299999	25.299999	25.299999	25.049999	25.049999	21.021740	21.020000	21.021740	21.021740	21.021740	21.000000	21.000000	21.018518	21.018518	21.000000	21.000000	21.045454	21.045454	21.026316	21.026316	21.020000	21.000000	21.000000	21.000000	21.000000	20.961538	20.857143	20.799999	20.409090	20.166666	20.038462	19.900000	19.600000	19.583334	19.277779	19.192308	19.049999	19.017241	19.000000	19.000000	19.000000	19.000000	19.000000	19.000000	19.000000	19.065218	19.083334	19.071428	19.071428	19.071428	19.071428	19.071428	20.852942	20.863636	20.928572	21.000000	21.000000	21.000000	21.000000	21.000000	21.000000	21.000000	21.000000	21.000000	21.000000	21.000000	21.000000	21.000000	21.000000	21.000000	21.000000	21.000000	21.000000	21.000000	21.000000	21.000000	20.983871	20.982759	21.000000	21.000000	21.000000	21.035715	21.045454	21.045454	21.000000	21.000000	21.000000	20.976191	20.976191	21.045454	21.045454	20.785715	20.785715	18.131578	18.049999	18.033333	18.033333	21.041666	21.041666	21.017241	21.017241	21.000000	21.000000	21.000000	21.000000	21.000000	21.000000	21.000000	21.000000	21.000000
20.071428	20.071428	20.071428	20.041666	20.026316	20.026316	20.059999	20.108696	20.136364	20.166666	20.166666	20.166666	20.150000	20.111111	20.038462	20.035715	20.035715	20.035715	20.045454	20.045454	20.150000	20.222221	20.222221	20.277779	20.277779	20.142857	20.111111	20.100000	20.100000	20.071428	20.071428	20.071428	20.078947	20.233334	20.250000	20.250000	20.250000	20.250000	20.055555	20.055555	23.166666	23.277779	23.611111	23.940001	23.961538	23.961538	23.961538	23.961538	23.961538	23.961538	23.950001	23.911764	23.860001	23.852942	23.833334	23.785715	23.714285	23.428572	23.299999	23.289474	23.184210	22.928572	22.833334	22.666666	22.333334	22.269230	22.166666	22.000000	21.900000	21.815790	21.815790	21.891304	21.891304	21.833334	21.833334	21.852942	21.916666	21.916666	21.928572	21.928572	21.964285	21.976191	21.978260	22.000000	22.000000	21.978260	21.978260	22.000000	22.000000	22.000000	22.000000	22.000000	22.021740	22.021740	22.026316	22.026316	22.059999	22.038462	22.000000	22.000000	22.000000	22.000000	22.000000	22.000000	22.000000	22.000000	22.000000	21.984848	21.958334	21.958334	21.954546	21.950001	21.948277	21.944445	21.928572	21.921053	21.921053	21.921053	21.909090	21.909090	21.909090	21.868422	21.868422	21.868422	21.868422	21.868422	21.868422	21.852942	21.750000	21.653847	21.583334	21.416666	21.205883	21.184210	21.184210	21.184210	22.055555	24.911764	25.049999	25.078947	25.078947	25.131578	25.187500	25.264706	25.285715	25.299999	25.299999	25.299999	25.299999	25.423077	25.576923	25.833334	25.921053	25.921053	25.900000	25.900000	25.880953	25.880953	25.868422	25.868422	25.921053	25.958334	25.958334	25.921053	25.891304	25.891304	25.934782	25.934782	25.909090	25.891304	25.880953	25.833334	25.763159	25.735294	25.433332	25.236841	25.139999	25.020000	24.973684	24.973684	25.000000	25.023809	25.026316	25.038462	25.038462	25.100000	25.131578	25.131578	25.299999	25.299999	24.100000	24.100000	21.059999	21.021740	21.021740	21.021740	21.021740	21.000000	21.000000	21.000000	21.021740	21.018518	21.000000	21.000000	21.020000	21.020000	21.026316	21.026316	21.020000	21.016129	21.000000	21.000000	21.000000	20.961538	20.857143	20.818182	20.799999	20.409090	20.166666	20.045454	19.900000	19.863636	19.722221	19.277779	19.192308	19.017241	19.000000	19.000000	19.000000	18.976191	18.976191	18.970589	18.970589	18.970589	19.033333	19.033333	19.055555	19.071428	19.071428	19.071428	20.852942	20.863636	20.928572	21.000000	21.000000	21.000000	21.000000	21.000000	21.000000	21.000000	21.000000	21.000000	21.000000	21.000000	21.000000	21.000000	21.000000	21.000000	21.041666	21.021740	21.021740	21.000000	21.000000	21.000000	20.983871	20.983871	21.000000	21.000000	21.023809	21.035715	21.045454	21.045454	21.045454	21.045454	21.299999	21.299999	21.214285	21.214285	21.214285	21.214285	20.785715	18.131578	18.033333	18.033333	18.033333	18.033333	18.000000	21.017241	21.017241	21.017241	21.000000	21.000000	21.000000	21.000000	21.000000	21.000000	21.000000	21.000000
20.066668	20.066668	20.041666	20.041666	20.026316	20.026316	20.059999	20.108696	20.166666	20.200001	20.200001	20.200001	20.250000	20.250000	20.195652	20.131578	20.131578	20.131578	20.131578	20.166666	20.222221	20.222221	20.346153	20.346153	20.277779	20.277779	20.142857	20.111111	20.100000	20.071428	20.071428	20.071428	20.078947	20.111111	20.233334	20.250000	20.250000	20.055555	20.055555	20.055555	23.166666	23.611111	23.951612	23.961538	23.966667	23.966667	24.000000	24.021740	24.021740	24.000000	23.961538	23.860001	23.833334	23.833334	23.785715	23.714285	23.437500	23.428572	23.357143	23.299999	23.184210	22.970589	22.928572	22.700001	22.375000	22.269230	22.166666	22.000000	21.909090	21.852942	21.815790	21.815790	21.785715	21.785715	21.833334	21.888889	21.916666	21.916666	21.928572	21.928572	21.973684	21.976191	22.000000	22.000000	22.000000	22.000000	22.000000	22.000000	22.000000	22.000000	22.000000	22.000000	22.021740	22.021740	22.026316	22.059999	22.059999	22.041666	22.038462	22.000000	22.000000	22.000000	22.000000	22.000000	22.000000	22.000000	22.000000	21.984848	21.958334	21.958334	21.958334	21.954546	21.950001	21.948277	21.944445	21.928572	21.921053	21.916666	21.916666	21.916666	21.916666	21.880953	21.868422	21.868422	21.868422	21.937500	22.029411	22.029411	22.000000	21.916666	21.807692	21.807692	21.807692	21.205883	21.184210	22.000000	22.055555	22.214285	25.049999	25.078947	25.078947	25.078947	25.078947	25.187500	25.285715	25.285715	25.299999	25.299999	25.299999	25.437500	25.681818	25.921053	25.921053	25.921053	25.857143	25.857143	25.880953	25.880953	25.880953	25.921053	25.958334	25.958334	25.958334	25.921053	25.891304	25.891304	25.891304	25.934782	25.909090	25.891304	25.868422	25.833334	25.763159	25.681818	25.433332	25.236841	25.131578	25.020000	24.981482	24.976191	24.976191	25.000000	25.000000	25.000000	24.944445	24.944445	24.944445	24.884615	24.681818	24.642857	24.100000	21.059999	21.021740	21.021740	21.021740	21.021740	21.000000	21.000000	21.000000	21.000000	21.020000	21.020000	21.000000	21.000000	21.020000	21.020000	21.020000	21.020000	21.020000	21.016129	21.016129	21.000000	21.000000	20.961538	20.961538	20.857143	20.857143	20.857143	20.681818	20.681818	20.681818	20.136364	20.136364	20.136364	19.277779	19.059999	19.018518	19.017241	19.000000	18.976191	18.966667	18.937500	18.857143	18.857143	18.970589	19.033333	19.071428	21.000000	21.000000	21.000000	21.000000	21.000000	21.000000	21.000000	21.000000	21.000000	21.000000	21.000000	21.023809	21.023809	21.023809	21.023809	21.023809	21.000000	21.000000	21.000000	21.000000	21.045454	21.045454	21.029411	21.021740	21.000000	21.000000	21.000000	21.000000	21.000000	21.000000	21.000000	21.000000	21.029411	21.045454	21.045454	21.045454	21.299999	21.299999	21.333334	21.333334	21.214285	21.214285	21.214285	21.071428	18.076923	18.033333	18.033333	18.033333	18.033333	18.021740	18.021740	21.017241	21.017241	21.000000	21.000000	21.000000	21.000000	21.000000	21.000000	21.000000	21.018518
20.038462	20.038462	20.038462	20.041666	20.029411	20.029411	20.055555	20.090910	20.150000	20.200001	20.200001	20.277779	20.388889	20.388889	20.566668	20.566668	20.642857	20.833334	20.833334	20.833334	20.833334	20.833334	20.735294	20.735294	20.666666	20.666666	20.400000	20.400000	20.125000	20.100000	20.071428	20.078947	20.078947	20.078947	20.071428	20.071428	20.071428	20.250000	23.312500	23.416666	23.750000	23.907408	23.951612	23.966667	23.966667	24.000000	24.000000	24.021740	24.021740	24.000000	24.000000	23.961538	23.860001	23.833334	23.815790	23.785715	23.714285	23.437500	23.437500	23.357143	23.299999	23.184210	22.970589	22.928572	22.700001	22.375000	22.166666	22.000000	21.981482	21.909090	21.852942	21.815790	21.815790	21.833334	21.888889	21.921053	21.928572	21.928572	21.928572	21.973684	21.976191	21.978260	21.978260	22.000000	22.000000	22.000000	22.000000	22.000000	22.000000	22.000000	22.000000	22.000000	22.021740	22.026316	22.049999	22.049999	22.059999	22.041666	22.041666	22.038462	22.020000	22.020000	22.000000	22.000000	22.000000	22.000000	22.000000	21.984848	21.958334	21.958334	21.958334	21.958334	21.978260	21.978260	21.958334	21.950001	21.928572	21.928572	21.916666	21.916666	21.891304	21.880953	21.868422	21.868422	21.868422	21.937500	22.029411	22.029411	22.029411	22.000000	21.807692	21.807692	21.807692	21.807692	22.000000	22.000000	22.214285	22.214285	25.049999	25.078947	25.078947	25.078947	25.078947	25.078947	25.285715	25.285715	25.423077	25.423077	25.423077	25.423077	25.437500	25.852942	25.921053	25.921053	25.921053	25.921053	25.921053	25.921053	25.976191	25.976191	25.973684	25.958334	25.921053	25.921053	25.921053	25.921053	25.944445	25.954546	25.954546	25.909090	25.891304	25.852942	25.763159	25.590910	25.357143	25.236841	25.131578	25.038462	24.981482	24.976191	24.976191	25.000000	25.000000	25.000000	25.000000	24.944445	24.944445	24.944445	24.884615	24.666666	21.065218	21.059999	21.035715	21.021740	21.021740	21.021740	21.020000	21.000000	21.000000	21.000000	21.020000	21.020000	21.000000	21.000000	21.021740	21.020000	21.020000	21.020000	21.020000	21.016129	21.016129	21.000000	21.000000	21.000000	20.980000	20.961538	20.900000	20.900000	20.857143	20.766666	20.730770	20.681818	20.681818	20.681818	20.921053	19.277779	19.059999	19.018518	19.000000	18.966667	18.937500	18.937500	18.937500	18.937500	19.033333	20.980000	21.000000	21.000000	21.000000	21.000000	21.000000	21.000000	21.000000	21.000000	21.000000	21.000000	21.000000	21.000000	21.023809	21.023809	21.023809	21.023809	21.023809	21.023809	21.023809	21.000000	21.023809	21.023809	21.029411	21.021740	21.000000	21.000000	21.000000	21.000000	21.000000	21.000000	21.000000	21.000000	21.000000	21.029411	21.038462	21.045454	21.045454	21.045454	21.299999	21.299999	21.214285	21.166666	21.166666	21.071428	20.285715	19.916666	18.076923	18.065218	18.065218	18.041666	18.033333	18.033333	20.921053	21.000000	21.000000	21.000000	21.021740	21.000000	21.000000	21.000000	21.018518	21.041666
20.038462	20.038462	20.038462	20.038462	20.029411	20.029411	20.041666	20.055555	20.090910	20.150000	20.200001	20.200001	20.277779	20.388889	20.388889	20.566668	20.566668	20.642857	20.833334	20.833334	20.833334	20.833334	20.735294	20.735294	20.666666	20.666666	20.400000	20.400000	20.277779	20.125000	20.100000	20.078947	20.078947	19.794117	19.794117	19.833334	20.071428	20.250000	23.416666	23.750000	23.847826	23.884615	23.907408	23.928572	23.966667	24.000000	24.000000	24.000000	24.000000	24.000000	24.000000	23.961538	23.880953	23.880953	23.863636	23.863636	23.900000	23.900000	23.863636	23.863636	23.863636	23.863636	23.863636	23.833334	23.833334	23.833334	22.375000	22.136364	22.000000	21.981482	21.944445	21.928572	21.928572	21.961538	21.961538	21.961538	21.976191	21.976191	21.978260	21.978260	21.978260	21.978260	21.978260	21.978260	22.000000	22.000000	22.020000	22.020000	22.000000	22.000000	22.000000	22.000000	22.021740	22.023809	22.041666	22.041666	22.041666	22.041666	22.041666	22.041666	22.020000	22.020000	22.000000	22.000000	22.000000	22.000000	21.984848	21.980000	21.958334	21.958334	21.958334	21.976191	21.978260	22.065218	22.000000	21.958334	21.950001	21.940001	21.934782	21.916666	21.891304	21.891304	21.880953	21.868422	21.875000	21.937500	22.000000	22.029411	22.033333	22.033333	22.000000	21.807692	21.807692	22.000000	22.000000	22.214285	22.642857	22.785715	22.785715	25.049999	25.078947	25.078947	22.923077	22.923077	25.045454	25.285715	25.285715	25.423077	25.423077	25.423077	25.423077	25.423077	25.852942	25.921053	25.921053	25.921053	25.921053	25.921053	25.921053	25.973684	25.958334	25.921053	25.888889	25.888889	25.921053	25.921053	25.921053	25.944445	25.944445	25.909090	25.891304	25.794117	25.794117	25.590910	25.357143	25.357143	25.184210	25.090910	25.038462	25.000000	25.000000	25.000000	25.000000	25.000000	25.000000	25.000000	24.944445	24.944445	24.884615	21.065218	21.065218	21.035715	21.035715	21.035715	21.021740	21.021740	21.020000	21.000000	21.000000	21.000000	21.020000	21.020000	21.020000	21.021740	21.021740	21.020000	21.000000	21.000000	21.016129	21.016129	21.000000	21.000000	21.000000	21.000000	21.000000	20.980000	20.980000	20.900000	20.900000	20.857143	20.766666	20.730770	20.730770	20.921053	20.954546	20.954546	19.277779	19.059999	19.018518	19.000000	19.000000	20.934782	20.934782	20.980000	20.980000	21.000000	21.000000	21.000000	21.000000	21.000000	21.000000	21.000000	21.000000	21.000000	21.000000	21.000000	21.000000	21.000000	21.020000	21.023809	21.023809	21.023809	21.023809	21.023809	21.023809	21.023809	21.023809	21.023809	21.021740	21.021740	21.000000	21.000000	21.000000	21.000000	21.000000	21.000000	21.000000	21.000000	20.976191	20.976191	21.029411	21.029411	21.000000	21.000000	21.000000	20.944445	20.944445	20.944445	20.944445	20.880953	20.714285	20.285715	19.916666	19.916666	19.970589	19.970589	20.921053	20.921053	20.981482	21.000000	21.000000	21.021740	21.021740	21.021740	21.000000	21.000000	21.041666	21.041666
20.038462	20.059999	20.059999	20.038462	20.038462	20.041666	20.055555	20.055555	20.055555	20.055555	20.083334	20.083334	20.083334	20.119047	20.125000	20.125000	20.125000	20.045454	20.045454	20.055555	20.055555	20.071428	20.088236	20.150000	20.150000	20.125000	20.125000	20.166666	20.125000	20.100000	20.000000	20.000000	19.799999	19.794117	19.794117	19.833334	19.833334	19.863636	23.416666	23.750000	23.847826	23.847826	23.884615	23.884615	23.928572	23.966667	24.000000	24.000000	23.973684	23.944445	23.934782	23.934782	23.934782	23.891304	23.891304	23.900000	23.900000	23.863636	23.863636	23.863636	23.863636	23.863636	23.833334	23.833334	23.833334	23.214285	22.794117	22.333334	22.131578	22.000000	22.000000	22.000000	22.000000	21.961538	21.961538	21.976191	21.976191	21.978260	21.978260	21.978260	21.978260	21.978260	21.978260	21.978260	21.978260	22.000000	22.020000	22.020000	22.018518	22.000000	22.000000	22.000000	22.000000	22.023809	22.023809	22.023809	22.023809	22.021740	22.041666	22.041666	22.020000	22.020000	22.020000	22.020000	22.020000	22.000000	22.000000	22.000000	22.000000	21.958334	21.958334	21.958334	21.976191	21.978260	21.958334	21.950001	21.940001	21.940001	21.934782	21.891304	21.891304	21.891304	21.891304	21.891304	21.900000	21.944445	21.961538	22.000000	22.029411	22.033333	22.033333	22.038462	22.055555	22.125000	22.147058	22.214285	22.269230	22.375000	22.375000	22.375000	22.722221	22.777779	22.777779	22.916666	22.923077	22.958334	23.000000	23.000000	23.055555	23.055555	22.978260	22.921053	22.857143	22.857143	22.875000	22.875000	22.911764	22.950001	22.950001	23.023809	23.023809	23.023809	23.088236	23.125000	23.125000	23.125000	23.125000	23.071428	23.041666	23.041666	23.041666	25.794117	25.590910	25.590910	25.357143	25.357143	25.090910	25.090910	25.065218	25.000000	25.000000	25.000000	25.000000	25.000000	25.000000	24.944445	24.815790	24.815790	24.125000	21.065218	21.038462	21.035715	21.035715	21.035715	21.021740	21.020000	21.020000	21.020000	21.000000	21.000000	21.020000	21.020000	21.020000	21.021740	21.021740	21.021740	21.000000	21.000000	21.000000	21.016129	21.000000	21.000000	21.000000	21.000000	21.000000	21.000000	21.000000	20.980000	20.944445	20.937500	20.875000	20.833334	20.921053	20.950001	20.954546	21.000000	21.000000	21.029411	21.200001	21.200001	21.119047	21.059999	21.000000	20.980000	20.980000	20.980000	21.000000	21.000000	21.000000	21.017241	21.000000	21.000000	20.980000	21.000000	21.000000	21.000000	21.000000	21.000000	21.017241	21.023809	21.023809	21.023809	21.021740	21.021740	21.023809	21.023809	21.023809	21.023809	21.023809	21.023809	21.071428	21.041666	21.018518	21.018518	21.000000	21.000000	21.000000	21.000000	20.976191	20.928572	20.928572	20.958334	21.000000	21.000000	20.911764	20.911764	20.911764	20.900000	20.900000	20.900000	20.880953	20.714285	20.642857	20.583334	20.583334	20.921053	20.921053	20.981482	21.000000	21.020000	21.020000	21.021740	21.021740	21.021740	21.021740	21.041666	21.041666	21.041666
20.038462	20.059999	20.083334	20.083334	20.083334	20.125000	20.136364	20.076923	20.055555	20.055555	20.055555	20.065218	20.065218	20.083334	20.119047	20.119047	20.045454	20.045454	20.045454	20.045454	20.055555	20.071428	20.071428	20.100000	20.125000	20.125000	20.125000	20.125000	20.125000	20.125000	20.100000	20.000000	19.961538	19.934782	19.934782	19.833334	19.833334	19.833334	19.863636	23.722221	23.847826	23.884615	23.884615	23.909090	23.928572	23.961538	23.976191	23.976191	23.976191	23.944445	23.934782	23.934782	23.934782	23.934782	23.891304	23.891304	23.763159	23.750000	23.750000	23.750000	23.750000	23.750000	23.269230	23.250000	23.214285	23.000000	22.794117	22.333334	22.131578	22.000000	22.000000	22.000000	22.000000	21.961538	21.961538	21.978260	21.978260	21.978260	21.978260	21.978260	21.978260	21.978260	21.978260	21.978260	21.978260	22.000000	22.000000	22.018518	22.018518	22.018518	22.000000	22.000000	22.000000	22.023809	22.023809	22.023809	22.021740	22.021740	22.038462	22.038462	22.038462	22.038462	22.038462	22.100000	22.233334	22.233334	22.142857	22.088236	22.000000	21.958334	21.950001	21.944445	21.944445	21.852942	21.323530	21.195652	21.166666	21.166666	21.200001	21.312500	21.735294	21.735294	21.891304	21.891304	21.934782	21.944445	21.961538	22.000000	22.000000	22.029411	22.033333	22.033333	22.038462	22.055555	22.125000	22.147058	22.147058	22.142857	22.100000	22.071428	22.078947	22.147058	22.166666	22.299999	22.666666	22.730770	22.807692	22.875000	22.978260	22.978260	22.921053	22.857143	22.857143	22.600000	22.600000	22.333334	22.333334	22.911764	22.950001	23.023809	23.023809	23.023809	23.088236	23.125000	23.125000	23.125000	23.125000	23.125000	23.041666	23.041666	23.041666	25.375000	25.590910	25.590910	25.357143	25.250000	25.090910	25.065218	25.049999	25.000000	25.000000	24.860001	24.815790	24.735294	24.428572	24.428572	24.428572	24.214285	24.125000	21.049999	21.045454	21.038462	21.035715	21.035715	21.035715	21.020000	21.020000	21.020000	21.020000	21.000000	21.020000	21.020000	21.021740	21.021740	21.021740	21.021740	21.021740	21.000000	21.000000	21.000000	21.000000	21.000000	21.000000	21.000000	21.000000	21.000000	21.000000	20.980000	20.944445	20.900000	20.833334	20.833334	20.833334	20.928572	20.954546	21.000000	21.029411	21.200001	21.200001	21.131578	21.119047	21.045454	21.000000	20.980000	20.980000	20.980000	20.980000	21.000000	21.000000	21.017241	21.000000	21.000000	21.000000	21.000000	21.000000	21.000000	21.000000	21.000000	21.017241	21.020000	21.023809	21.021740	21.021740	21.021740	21.021740	21.023809	21.023809	21.023809	21.023809	21.023809	21.071428	21.041666	21.041666	21.038462	21.038462	21.038462	21.000000	21.000000	21.000000	20.976191	20.958334	21.000000	21.000000	21.000000	20.916666	20.911764	20.911764	20.900000	20.900000	20.900000	20.880953	20.794117	20.700001	20.642857	20.583334	20.583334	20.921053	20.921053	20.981482	21.020000	21.020000	21.020000	21.021740	21.021740	21.041666	21.041666	21.041666	21.041666
20.038462	20.049999	20.083334	20.083334	20.152174	20.187500	20.166666	20.136364	20.059999	20.055555	20.033333	20.055555	20.065218	20.065218	20.059999	20.059999	20.059999	20.045454	20.045454	20.045454	20.065218	20.071428	20.100000	20.100000	20.100000	20.100000	20.045454	20.045454	20.125000	20.125000	20.100000	20.000000	19.961538	19.934782	19.934782	19.833334	19.794117	19.666666	19.833334	23.100000	23.722221	23.847826	23.884615	23.884615	23.909090	23.928572	23.950001	23.976191	23.976191	23.934782	23.934782	23.934782	23.934782	23.891304	23.891304	23.799999	23.750000	23.441177	23.441177	23.441177	23.441177	23.269230	23.250000	23.214285	23.000000	23.000000	22.333334	22.233334	22.071428	22.000000	22.000000	21.981482	21.964285	21.964285	21.978260	21.978260	21.978260	21.978260	21.978260	21.978260	21.978260	21.978260	21.978260	21.978260	22.000000	22.000000	22.000000	22.000000	22.018518	22.018518	22.018518	22.000000	22.000000	22.000000	22.023809	22.021740	22.021740	22.021740	22.038462	22.038462	22.038462	22.038462	22.100000	22.100000	22.142857	22.142857	22.142857	22.131578	22.000000	21.958334	21.958334	21.944445	21.852942	21.750000	21.323530	21.323530	21.195652	21.195652	21.312500	21.312500	21.681818	21.735294	21.847826	21.909090	21.944445	22.020000	22.020000	22.000000	22.029411	22.029411	22.029411	22.026316	22.023809	22.023809	22.023809	22.026316	22.055555	22.062500	22.062500	22.062500	22.062500	22.088236	22.166666	22.299999	22.666666	22.807692	22.807692	22.978260	22.978260	22.978260	22.978260	22.921053	22.857143	22.857143	22.600000	22.600000	22.600000	22.950001	25.423077	25.750000	25.750000	25.750000	25.799999	25.799999	25.888889	25.888889	24.187500	24.125000	24.125000	24.125000	25.375000	25.700001	25.700001	25.590910	25.277779	25.250000	25.125000	25.049999	25.021740	25.000000	24.860001	24.833334	24.833334	24.815790	24.735294	24.428572	24.428572	24.428572	24.214285	24.125000	21.049999	21.045454	21.038462	21.035715	21.035715	21.020000	21.020000	21.020000	21.020000	21.020000	21.020000	21.051723	21.100000	21.071428	21.021740	21.021740	21.021740	21.000000	21.000000	21.000000	21.000000	21.000000	21.000000	21.000000	21.000000	21.000000	21.000000	20.940001	20.909090	20.900000	20.833334	20.833334	20.833334	20.833334	20.928572	21.000000	21.033333	21.083334	21.100000	21.100000	21.045454	21.018518	21.000000	21.000000	20.980000	20.980000	20.980000	20.980000	21.000000	21.000000	21.000000	21.000000	21.000000	21.000000	21.000000	21.000000	20.980000	20.980000	21.000000	21.017241	21.017241	21.021740	21.021740	21.021740	21.021740	21.021740	21.021740	21.021740	21.021740	21.023809	21.041666	21.041666	21.038462	21.038462	21.038462	21.038462	21.038462	21.038462	21.038462	21.071428	21.071428	21.125000	21.125000	21.100000	21.000000	20.978260	20.911764	20.900000	20.833334	20.833334	20.794117	20.700001	20.642857	20.388889	20.083334	19.884615	19.884615	19.884615	18.108696	18.108696	21.020000	21.020000	21.020000	21.021740	21.041666	21.041666	21.041666	21.041666
20.038462	20.049999	20.049999	20.086206	20.090910	20.152174	20.152174	20.059999	20.055555	20.038462	20.033333	20.033333	20.055555	20.059999	20.059999	20.059999	20.100000	20.088236	20.045454	20.045454	20.065218	20.071428	20.100000	20.100000	20.100000	20.100000	20.100000	20.045454	20.045454	20.045454	20.045454	19.966667	19.961538	19.934782	19.911764	19.833334	19.794117	19.794117	19.833334	20.000000	23.100000	23.100000	19.785715	19.785715	23.687500	23.687500	23.687500	23.700001	23.700001	23.735294	23.794117	23.794117	23.777779	23.777779	23.799999	23.750000	23.441177	23.441177	23.441177	23.441177	23.269230	23.250000	23.214285	23.000000	23.000000	22.700001	22.600000	22.333334	22.166666	22.045454	22.000000	21.981482	21.964285	21.964285	21.978260	21.978260	22.020000	22.000000	21.981482	21.981482	21.981482	21.980000	21.980000	22.000000	22.000000	22.000000	22.000000	22.000000	22.000000	22.018518	22.018518	22.018518	22.000000	22.000000	22.020000	22.021740	22.021740	22.029411	22.038462	22.059999	22.059999	22.100000	22.100000	22.100000	22.100000	22.111111	22.111111	22.055555	21.981482	21.958334	21.958334	21.937500	21.785715	21.375000	21.346153	21.323530	21.323530	21.312500	21.312500	21.366667	21.681818	21.730770	21.750000	21.900000	21.944445	22.020000	22.020000	22.029411	22.029411	22.029411	22.023809	22.000000	22.000000	22.023809	22.023809	22.023809	22.026316	22.055555	22.055555	22.055555	22.062500	22.088236	22.166666	22.666666	25.000000	25.000000	25.000000	25.045454	25.083334	25.147058	25.166666	25.227272	25.375000	25.375000	25.423077	25.423077	25.423077	25.423077	25.423077	25.666666	25.750000	25.750000	25.750000	25.799999	25.875000	25.875000	25.875000	25.833334	25.375000	25.375000	25.700001	25.700001	25.700001	25.590910	25.277779	25.250000	25.125000	25.021740	25.000000	24.888889	24.833334	24.833334	24.833334	24.852942	24.852942	24.852942	24.833334	24.722221	24.428572	24.277779	24.277779	24.250000	24.200001	21.059999	21.048388	21.020000	21.020000	21.020000	21.020000	21.026316	21.045454	21.049999	21.051723	21.051723	21.035715	21.021740	21.021740	21.021740	21.020000	21.000000	21.000000	21.000000	21.000000	21.000000	21.000000	21.000000	20.961538	20.940001	20.909090	20.909090	20.900000	20.833334	20.833334	20.833334	20.944445	21.000000	21.033333	21.033333	21.041666	21.041666	21.018518	21.000000	21.000000	21.000000	21.000000	20.980000	20.980000	20.980000	20.980000	21.000000	21.000000	21.000000	21.000000	21.000000	20.970589	20.970589	20.900000	20.900000	20.973684	20.976191	20.976191	20.973684	20.888889	20.888889	20.973684	20.973684	20.973684	21.021740	21.021740	21.021740	21.041666	21.041666	21.038462	21.038462	21.038462	21.038462	21.038462	21.038462	21.071428	21.078947	21.150000	21.299999	21.382353	21.382353	21.357143	21.000000	20.978260	20.833334	20.833334	20.750000	18.041666	18.041666	17.978260	17.978260	17.978260	18.000000	18.000000	18.000000	18.041666	18.041666	18.041666	18.023809	18.023809	21.000000	21.035715	21.041666	21.041666	21.041666
20.049999	20.049999	20.049999	20.086206	20.086206	20.065218	20.055555	20.038462	20.038462	20.033333	20.020000	20.020000	20.033333	20.055555	20.059999	20.065218	20.076923	20.076923	20.023809	20.023809	20.045454	20.065218	20.071428	20.100000	20.100000	20.100000	20.100000	20.045454	19.875000	19.875000	19.954546	19.961538	19.934782	19.911764	19.911764	19.794117	19.794117	19.794117	19.794117	19.700001	19.700001	19.785715	19.785715	19.785715	19.785715	23.136364	23.166666	23.285715	23.700001	23.735294	23.794117	23.794117	23.794117	23.794117	23.794117	23.794117	23.750000	23.441177	23.441177	23.323530	23.269230	23.214285	23.083334	23.000000	22.857143	22.857143	22.700001	22.600000	22.357143	22.166666	22.045454	22.000000	22.000000	22.000000	22.000000	22.020000	22.020000	22.000000	22.000000	21.981482	21.981482	21.981482	21.981482	22.000000	22.000000	22.000000	22.000000	22.000000	22.000000	22.018518	22.018518	22.018518	22.000000	22.000000	22.020000	22.021740	22.029411	22.038462	22.100000	22.166666	22.136364	22.108696	22.100000	22.100000	22.055555	22.055555	22.055555	21.981482	21.958334	21.958334	21.958334	21.958334	21.785715	21.375000	21.346153	21.346153	21.323530	21.312500	21.312500	21.366667	21.730770	21.730770	21.730770	21.730770	21.900000	21.964285	22.020000	22.029411	22.029411	22.029411	22.023809	22.000000	21.973684	21.911764	21.944445	22.000000	22.023809	22.023809	22.000000	22.000000	22.062500	22.147058	22.666666	25.187500	25.187500	25.166666	25.147058	25.147058	25.147058	25.147058	25.187500	25.233334	25.312500	25.375000	25.375000	25.423077	25.423077	25.423077	25.423077	25.423077	25.666666	25.750000	25.750000	25.799999	25.875000	25.875000	25.833334	25.833334	25.833334	25.700001	25.700001	25.700001	25.700001	25.700001	25.277779	25.200001	25.108696	25.000000	25.000000	24.909090	24.888889	24.875000	24.875000	24.852942	24.852942	24.833334	24.735294	24.735294	24.428572	24.318182	24.277779	24.277779	24.250000	24.200001	21.048388	21.020000	21.020000	21.020000	21.020000	21.026316	21.045454	21.045454	21.049999	21.049999	21.051723	21.088236	21.083334	21.029411	21.021740	21.016129	21.000000	21.000000	21.000000	21.000000	21.000000	21.000000	20.961538	20.961538	20.961538	20.961538	20.909090	20.900000	20.900000	20.944445	20.961538	21.021740	21.033333	21.033333	21.041666	21.041666	21.041666	21.018518	21.000000	21.000000	21.000000	21.000000	21.000000	20.980000	21.000000	21.000000	21.000000	21.000000	21.000000	21.000000	20.976191	20.970589	20.970589	20.970589	20.973684	20.976191	20.976191	20.976191	20.973684	20.973684	20.973684	20.973684	20.973684	21.021740	21.021740	21.021740	21.026316	21.041666	21.038462	21.038462	21.038462	21.038462	21.038462	21.059999	21.078947	21.147058	21.299999	21.382353	21.409090	21.687500	21.687500	21.357143	21.000000	20.833334	20.653847	18.041666	18.041666	17.978260	17.978260	17.978260	17.978260	18.000000	18.000000	17.891304	17.891304	17.978260	17.978260	17.625000	17.625000	17.625000	21.000000	21.035715	21.035715	21.035715
20.049999	20.049999	20.049999	20.071428	20.071428	20.071428	20.065218	20.055555	20.038462	20.033333	20.020000	20.020000	20.023809	20.023809	20.055555	20.059999	20.065218	20.041666	20.041666	20.041666	20.045454	20.049999	20.062500	20.062500	20.000000	19.815790	19.722221	19.722221	19.666666	19.666666	19.714285	19.714285	19.714285	19.714285	19.714285	19.666666	19.600000	19.357143	19.333334	19.333334	19.100000	19.100000	19.785715	19.785715	19.785715	20.045454	23.166666	23.700001	23.916666	23.916666	23.934782	23.934782	23.934782	23.973684	23.921053	23.921053	23.833334	23.750000	23.750000	23.441177	23.323530	23.269230	23.214285	23.083334	23.000000	22.857143	22.857143	22.750000	22.653847	22.583334	22.357143	22.233334	22.214285	22.214285	22.111111	22.055555	22.020000	22.020000	22.020000	22.020000	22.000000	21.981482	22.000000	22.000000	22.000000	22.000000	22.000000	22.000000	22.000000	22.018518	22.018518	22.018518	22.018518	22.018518	22.021740	22.055555	22.055555	22.100000	22.136364	22.139999	22.139999	22.136364	22.100000	22.026316	22.000000	22.000000	21.973684	21.958334	21.958334	21.958334	22.045454	22.045454	22.000000	21.785715	21.375000	21.346153	21.346153	21.323530	21.366667	21.730770	21.750000	21.750000	21.730770	21.730770	21.730770	21.900000	21.976191	22.029411	22.029411	22.049999	22.049999	22.023809	22.000000	21.973684	22.000000	22.023809	22.023809	22.023809	22.000000	22.000000	22.062500	25.166666	25.187500	25.200001	25.200001	25.187500	25.187500	25.147058	25.147058	25.187500	25.233334	25.312500	25.312500	25.375000	25.375000	25.423077	25.423077	25.423077	25.423077	25.423077	25.750000	25.750000	25.799999	25.875000	25.875000	25.875000	25.875000	25.833334	25.833334	25.833334	25.700001	25.700001	25.730770	25.730770	25.700001	25.277779	25.200001	25.108696	25.000000	25.000000	24.937500	24.916666	24.900000	24.852942	24.833334	24.735294	24.735294	24.735294	24.735294	24.428572	24.409090	24.346153	24.346153	24.346153	21.048388	21.020000	21.020000	21.020000	21.020000	21.020000	21.026316	21.045454	21.045454	21.049999	21.049999	21.051723	21.051723	21.029411	21.021740	21.016129	21.000000	21.000000	21.000000	21.000000	21.000000	21.000000	21.000000	20.961538	20.961538	20.961538	20.961538	20.909090	20.909090	20.944445	20.961538	21.033333	21.088236	21.088236	21.088236	21.088236	21.088236	21.131578	21.187500	21.250000	21.250000	21.214285	21.166666	21.033333	21.023809	21.023809	21.000000	21.000000	21.000000	21.000000	21.023809	21.023809	21.023809	21.065218	21.115385	21.115385	21.033333	21.029411	21.029411	21.100000	21.100000	21.062500	21.055555	21.055555	21.055555	21.026316	21.026316	21.041666	21.041666	21.038462	21.038462	21.038462	21.059999	21.078947	21.147058	21.299999	21.382353	21.409090	21.750000	22.000000	22.000000	22.000000	22.000000	21.000000	20.833334	20.653847	18.041666	18.041666	17.978260	17.978260	18.000000	18.000000	18.000000	18.000000	17.978260	17.978260	17.978260	17.978260	17.625000	17.625000	21.035715	21.035715	21.035715	21.035715
20.038462	20.041666	20.049999	20.071428	20.131578	20.166666	20.166666	20.083334	20.055555	20.033333	20.020000	20.020000	20.023809	20.023809	20.055555	20.059999	20.065218	20.065218	20.065218	20.065218	20.065218	20.065218	20.062500	20.062500	20.000000	19.921053	19.815790	19.722221	19.722221	19.714285	19.714285	19.714285	19.100000	19.023809	18.973684	19.000000	19.045454	19.299999	19.299999	19.250000	19.100000	19.100000	19.700001	19.766666	19.785715	23.166666	23.928572	23.916666	23.916666	23.934782	23.934782	23.934782	23.934782	23.934782	23.921053	23.921053	23.921053	23.921053	23.818182	23.818182	23.921053	23.954546	23.964285	23.964285	24.000000	24.000000	23.900000	23.875000	23.875000	23.833334	23.833334	23.833334	22.285715	22.214285	22.166666	22.055555	22.055555	22.045454	22.020000	22.020000	22.020000	22.000000	22.000000	22.000000	22.000000	22.000000	22.000000	22.000000	22.000000	22.018518	22.018518	22.018518	22.018518	22.055555	22.055555	22.055555	22.055555	22.078947	22.136364	22.139999	22.139999	22.136364	22.026316	22.000000	21.921053	21.921053	21.875000	21.916666	21.958334	22.045454	22.045454	22.045454	22.045454	22.045454	21.794117	21.794117	21.794117	21.794117	21.794117	21.794117	21.794117	21.772728	21.750000	21.730770	21.730770	21.794117	21.976191	22.029411	22.049999	22.131578	22.131578	22.059999	22.055555	22.055555	22.078947	22.083334	22.083334	22.023809	22.000000	22.000000	22.062500	25.187500	25.722221	25.766666	25.766666	25.766666	25.833334	25.833334	25.888889	25.921053	25.958334	25.958334	25.958334	25.973684	25.973684	25.950001	25.928572	25.928572	25.928572	25.928572	25.888889	25.888889	25.888889	25.888889	25.875000	25.875000	25.875000	25.900000	25.928572	25.976191	26.000000	25.928572	25.923077	25.868422	25.730770	25.722221	25.433332	25.333334	25.299999	25.029411	25.000000	24.950001	24.916666	24.852942	24.812500	24.735294	24.735294	24.785715	24.785715	24.833334	24.833334	24.833334	24.833334	24.833334	21.048388	21.020000	21.020000	21.020000	21.020000	21.020000	21.020000	21.041666	21.045454	21.045454	21.045454	21.045454	21.029411	21.029411	21.021740	21.016129	21.000000	21.000000	21.000000	21.000000	21.000000	21.000000	21.000000	21.000000	20.961538	20.961538	20.961538	20.950001	20.944445	20.944445	21.000000	21.100000	21.100000	21.100000	21.100000	21.100000	21.166666	21.187500	21.250000	21.333334	21.333334	21.375000	21.375000	21.375000	21.166666	21.055555	21.055555	21.100000	21.100000	21.100000	21.299999	21.416666	21.416666	21.416666	21.416666	21.416666	21.416666	21.416666	21.416666	21.416666	28.750000	28.750000	28.750000	28.750000	28.750000	28.833334	29.863636	29.863636	28.250000	28.000000	26.272728	26.166666	26.023809	26.000000	25.973684	25.973684	25.973684	26.020000	26.088236	26.136364	26.136364	25.978260	25.888889	25.850000	25.794117	25.794117	25.970589	25.970589	25.980000	25.980000	25.978260	25.950001	25.940001	25.940001	26.045454	26.100000	26.125000	26.125000	26.062500	25.937500	25.937500	25.772728	25.400000	25.346153
20.041666	20.041666	20.049999	20.083334	20.115385	20.131578	20.083334	20.083334	20.038462	20.020000	20.020000	20.020000	20.023809	20.055555	20.125000	20.250000	20.250000	20.166666	20.147058	20.131578	20.090910	20.090910	20.078947	20.062500	20.000000	19.921053	19.857143	19.815790	19.722221	19.722221	19.714285	19.100000	19.035715	19.023809	19.023809	19.023809	19.045454	19.299999	19.299999	19.250000	19.250000	19.250000	19.700001	19.766666	19.766666	19.785715	23.166666	23.166666	23.166666	23.934782	23.934782	23.934782	23.852942	23.852942	23.921053	23.921053	23.970589	23.940001	23.940001	23.921053	23.921053	23.921053	23.954546	23.964285	24.000000	24.000000	24.125000	24.125000	24.000000	24.000000	23.833334	23.833334	22.285715	22.166666	22.078947	22.055555	22.045454	22.020000	22.020000	22.020000	22.020000	22.000000	22.000000	22.000000	22.000000	22.000000	22.000000	22.000000	22.000000	22.018518	22.018518	22.018518	22.041666	22.055555	22.071428	22.055555	22.055555	22.065218	22.125000	22.139999	22.150000	22.150000	22.136364	22.000000	21.944445	21.921053	21.916666	21.916666	22.045454	22.059999	22.059999	22.045454	22.045454	22.625000	22.625000	21.794117	21.794117	21.799999	21.794117	21.794117	21.794117	21.772728	21.730770	21.642857	21.642857	21.681818	21.944445	22.045454	22.227272	22.131578	22.131578	22.059999	22.059999	22.078947	22.083334	22.142857	22.142857	22.142857	22.023809	22.023809	25.187500	25.722221	25.766666	25.766666	25.850000	25.880953	25.933332	25.958334	25.958334	25.958334	25.958334	25.958334	25.976191	25.976191	25.973684	25.973684	25.950001	25.950001	25.950001	25.928572	25.928572	25.911764	25.911764	25.911764	25.888889	25.888889	25.900000	25.928572	25.976191	25.976191	25.976191	25.928572	25.923077	25.777779	25.722221	25.722221	25.617647	25.433332	25.299999	25.049999	25.000000	24.944445	24.900000	24.900000	24.852942	24.852942	24.852942	24.852942	24.900000	24.900000	24.928572	25.000000	25.000000	24.966667	21.048388	21.020000	21.020000	21.020000	21.020000	21.020000	21.020000	21.020000	21.021740	21.021740	21.026316	21.026316	21.026316	21.029411	21.021740	21.000000	20.978260	20.978260	20.978260	20.978260	20.978260	20.978260	21.000000	20.961538	20.958334	20.958334	20.950001	20.950001	20.950001	21.000000	21.100000	21.100000	21.100000	21.100000	21.100000	21.166666	21.187500	21.187500	21.333334	29.187500	29.187500	29.187500	29.277779	29.642857	29.642857	29.653847	29.653847	29.642857	29.642857	29.642857	29.642857	29.714285	29.714285	29.714285	29.714285	29.750000	29.766666	29.785715	29.911764	29.923077	29.954546	29.954546	29.950001	29.944445	29.916666	29.916666	29.944445	29.944445	29.944445	29.944445	29.973684	29.973684	29.973684	29.852942	29.812500	29.714285	29.611111	29.375000	29.375000	29.375000	29.750000	29.750000	29.750000	29.571428	29.333334	29.333334	29.333334	29.611111	29.794117	29.857143	29.900000	29.928572	29.928572	29.884615	29.884615	29.884615	29.900000	29.961538	30.000000	30.033333	30.033333	30.033333	30.049999	30.049999
20.071428	20.071428	20.083334	20.090910	20.090910	20.083334	20.083334	20.083334	20.083334	20.038462	20.020000	20.023809	20.055555	20.125000	20.250000	20.416666	20.416666	20.299999	20.166666	20.131578	20.090910	20.090910	20.078947	20.055555	20.000000	19.857143	19.857143	19.857143	19.833334	19.833334	19.722221	19.714285	19.100000	19.049999	19.049999	19.049999	19.166666	19.299999	19.299999	19.299999	19.299999	19.700001	19.766666	19.766666	19.766666	19.785715	23.166666	23.166666	23.166666	23.934782	23.934782	23.934782	23.934782	23.921053	23.921053	23.954546	23.970589	23.970589	23.940001	23.921053	23.921053	23.888889	23.888889	23.928572	24.000000	24.000000	24.000000	24.000000	24.000000	24.000000	23.833334	22.285715	22.076923	22.076923	22.041666	22.041666	22.020000	22.020000	22.020000	22.020000	22.000000	22.000000	22.000000	22.000000	22.000000	22.000000	22.000000	22.000000	22.000000	22.018518	22.018518	22.018518	22.038462	22.055555	22.055555	22.055555	22.055555	22.055555	22.065218	22.150000	22.150000	22.250000	22.357143	22.357143	22.000000	21.944445	21.944445	22.333334	22.333334	22.277779	22.277779	22.722221	22.833334	23.571428	23.777779	23.750000	21.875000	21.852942	21.852942	21.794117	21.794117	21.794117	21.772728	21.730770	21.681818	21.681818	22.045454	24.978260	25.015152	25.015152	22.131578	22.131578	25.038462	25.083334	25.083334	25.083334	25.250000	25.409090	25.700001	25.785715	25.785715	25.833334	25.891304	25.928572	25.933332	25.933332	25.964285	25.958334	25.958334	25.958334	25.958334	25.958334	25.958334	25.973684	25.973684	25.973684	25.950001	25.950001	25.950001	25.950001	25.928572	25.928572	25.928572	25.928572	25.976191	25.976191	25.928572	25.928572	25.940001	25.976191	25.944445	25.928572	25.818182	25.818182	25.777779	25.722221	25.617647	25.323530	25.125000	25.049999	24.961538	24.940001	24.940001	24.940001	24.940001	24.884615	24.884615	24.900000	24.900000	24.928572	25.000000	25.041666	25.041666	25.000000	24.966667	21.048388	21.045454	21.045454	21.045454	21.020000	21.020000	21.021740	21.021740	21.021740	21.026316	21.026316	21.026316	21.026316	21.000000	20.978260	20.978260	20.976191	20.944445	20.944445	20.875000	20.875000	20.888889	20.888889	20.888889	20.888889	20.833334	20.833334	20.950001	21.000000	21.100000	21.100000	21.100000	21.100000	21.166666	21.187500	21.187500	21.333334	29.205883	29.205883	29.205883	29.277779	29.642857	29.642857	29.700001	29.812500	29.850000	29.850000	29.950001	29.978260	29.978260	29.978260	30.000000	30.000000	30.000000	30.000000	30.000000	30.000000	30.000000	30.000000	29.973684	29.954546	29.950001	29.944445	29.944445	29.950001	29.958334	29.976191	29.976191	29.976191	29.976191	29.973684	29.973684	29.973684	29.852942	29.812500	29.714285	29.611111	29.611111	29.785715	29.785715	29.785715	29.785715	29.750000	29.571428	29.571428	29.611111	29.794117	29.857143	29.900000	29.928572	29.966667	29.966667	29.928572	29.900000	29.900000	29.961538	30.000000	30.033333	30.033333	30.033333	30.033333	30.049999	30.049999
